ncols         485
nrows         44
xllcorner     -2638000
yllcorner     3710000
cellsize      10000
NODATA_value  -9999
5704 5704 5704 5704 5704 5708 6016 6192 6192 6192 6211 6754 7250 7244 7018 6475 6053 6634 6823 5668 5579 5746 5793 5529 5223 5311 5088 5083 5124 5130 5222 4967 4882 5066 5168 5694 5419 4687 5653 5920 5704 5307 4730 3448 3311 3625 3832 3553 3172 2967 2911 2709 2328 2166 2043 1969 1954 1966 1969 1995 1974 1984 2086 2154 2209 2289 2375 2422 2349 2221 2205 2187 2167 2169 2162 2234 2366 2403 2453 2536 2595 2816 3119 3342 3493 3292 2881 3066 3672 3854 4213 4137 3882 4000 4076 4748 4817 5216 5536 5188 4660 4429 4268 4639 4717 4217 4470 4806 4484 4445 4181 4171 4579 4636 4723 5228 4872 5028 5104 4908 4795 4592 4506 4402 4210 4124 4036 4097 4274 4317 4379 4363 3992 3714 3706 4080 4365 4664 4548 3996 3583 3301 3072 3005 3008 3021 3238 3398 3333 3081 2859 2782 2726 2740 2728 2703 2726 2719 2699 2691 2701 2716 2762 2873 2767 2736 2794 2806 2784 2752 2746 2742 2798 3210 3377 3379 3582 3600 3763 4038 4431 4635 4707 4797 4638 4861 4561 4493 4346 4215 4117 4149 4340 4526 4436 4341 4351 4312 4219 4117 4161 4582 4818 4630 4380 3967 3888 3897 3979 4234 4286 4092 4034 4119 4220 4064 3569 4030 3478 3418 2986 3456 3054 2974 2402 2145 2062 2021 2055 2144 2099 2042 2090 2141 2141 2324 2567 2271 1855 1540 1447 1405 1382 1371 1384 1386 1381 1372 1367 1352 1356 1364 1352 1351 1348 1346 1341 1339 1338 1347 1352 1364 1373 1369 1379 1309 1298 1296 1330 1478 2068 2107 1211 1121 1109 1106 1104 1135 1236 1293 1331 1355 1387 1413 1412 1347 1352 1385 1394 1400 1385 1349 1344 1348 1345 1354 1320 1296 1294 1292 1247 1212 1197 1178 1221 1283 1269 1196 1124 1038 1132 1131 989 938 905 1016 1127 1315 1537 1776 1744 1539 1432 1356 1588 1694 1692 1164 1015 864 793 882 1521 1339 1030 861 1028 712 576 320 226 169 145 126 99 88 74 61 51 44 38 33 30 25 22 19 17 14 13 15 12 12 12 13 9 8 6 7 7 6 5 5 5 4 2 2 2 3 4 3 1 2 2 2 1 -4 -11 -13 -12 -12 -11 20 24 24 24 2 2 16 46 126 110 61 63 2 0 18 1 12 0 -4 7 77 3 -6 0 -10 6 -32 -34 -35 -35 -35 -35 -35 -35 -35 -35 -35 -35 -35 -35 -35 -35 -35 -35 -35 -35 -35 -35 -35 -35 -35 -35 -35 -35 -35 -35 -35 -35 -35 -35 -35 -35 -35 -35 -35 -35 -35 -35 -35 -35 -35 -35 -35 -35 -35 -35 -35 -35 -35 -35 -35 -35 53 513 706 706 706 706 706 706 706 706 706 706
5704 5704 5704 5704 5708 6016 6192 6192 6192 6198 6597 7254 7244 7018 6645 5977 6416 6873 6850 6770 6128 5718 5463 5254 5323 5290 5361 5342 5425 5306 5479 5443 5380 5315 4905 5025 5065 4791 4902 5560 5610 5373 4688 4557 3724 4648 4543 3929 3376 3279 3052 2784 2590 2514 2229 2278 2186 2243 2227 2445 2271 2279 2421 2548 2788 3055 3171 3421 3038 2613 2678 2567 2509 2554 2568 2586 2725 2716 2792 2919 3111 3667 4138 4124 3749 3201 3406 3852 4348 4049 4436 4268 4618 4493 4363 4903 4924 4963 5018 4924 4842 4551 4446 4369 4591 4515 4730 4660 4404 4846 4586 4908 4929 5262 5253 5188 5095 5154 5061 5062 5100 4845 4605 4370 4158 3982 3898 3914 3889 3900 3954 4286 4402 4018 3819 3784 3900 4195 4709 4706 4175 3668 3466 3203 3173 3175 3210 3402 3236 2971 2899 2826 2747 2733 2773 2776 2762 2757 2732 2702 2689 2688 2697 2758 2800 2714 2743 2798 2798 2769 2755 2752 2775 2870 3074 3184 3240 3268 3667 4108 3956 4045 4233 4334 4381 4595 4875 4900 4729 4683 4462 4235 4301 4424 4498 4380 4310 4234 4128 4080 4080 4148 4362 4646 4543 4118 3937 3901 3939 4007 4029 4176 4264 3964 3859 4086 3736 3541 3961 3728 3121 3089 3656 3442 3003 2480 2388 2239 2240 2318 2263 2495 2468 2464 2373 2191 2266 2247 2143 1602 1498 1435 1395 1380 1388 1396 1392 1389 1400 1364 1371 1382 1373 1374 1356 1353 1349 1348 1343 1349 1351 1356 1364 1371 1384 1314 1294 1282 1300 1426 2009 1986 1223 1117 1107 1107 1116 1178 1282 1334 1370 1382 1406 1424 1347 1326 1354 1396 1402 1399 1386 1357 1335 1322 1318 1342 1320 1259 1257 1276 1274 1246 1206 1157 1183 1239 1285 1219 1125 1014 1052 1058 962 878 1019 1063 1168 1382 1711 1687 1311 1330 1343 1327 1495 1555 1447 1207 1008 920 1020 1432 1402 1220 1246 965 1188 1038 775 511 342 270 189 140 94 80 68 60 50 44 39 34 31 27 24 20 18 15 14 13 12 11 12 12 10 8 9 9 8 7 6 5 5 4 2 2 2 3 4 4 4 5 4 2 2 -2 -8 -11 -11 -11 -10 1 11 14 14 2 16 52 72 123 126 135 139 77 53 77 4 24 14 22 50 98 65 44 47 42 0 -22 -33 -35 -35 -35 -35 -35 -35 -35 -35 -35 -35 -35 -35 -35 -35 -35 -35 -35 -35 -35 -35 -35 -35 -35 -35 -35 -35 -35 -35 -35 -35 -35 -35 -35 -35 -35 -35 -35 -35 -35 -35 -35 -35 -35 -35 -35 -35 -35 -35 -35 -35 -35 -35 -35 -35 -35 -27 283 676 706 706 706 706 706 706 706 706
5704 5704 5704 5708 6016 6192 6192 6192 6192 6361 7212 7244 7018 6779 5991 6295 6605 6871 6941 6648 6227 5808 5710 5583 5559 5630 5751 5631 5576 5428 5142 5281 5482 5777 5436 4887 5147 5446 5005 5591 5722 5386 5058 5165 4352 4672 5379 4870 3970 3510 3399 3166 3119 2830 2665 2819 2630 2744 2526 2886 2748 2618 3009 3535 3770 4494 4003 4692 4283 3690 3311 3480 3267 3210 3142 3186 3624 3299 3423 3636 3617 3808 4364 4589 4182 4223 4928 5161 5306 4945 5000 4744 4730 4539 4516 4691 4898 4966 4853 4860 4827 4722 4565 4511 4304 4304 4255 4336 4379 4800 4885 4890 4913 4858 4896 4743 4728 4818 4882 4958 4932 4860 4736 4539 4229 4031 3935 3888 3880 3884 3882 3913 4275 4491 4228 4133 4110 4043 4066 4604 4835 4264 3791 3503 3319 3313 3212 3135 3045 2924 2911 2954 2880 2780 2770 2791 2794 2759 2751 2741 2728 2702 2684 2704 2772 2747 2688 2732 2787 2783 2776 2780 2801 2855 2905 3029 3171 3265 3594 4143 4444 4445 4406 4361 4546 4465 4623 4882 5051 5110 4810 4482 4379 4624 4465 4448 4282 4168 4102 4082 4080 4081 4148 4308 4401 4240 4129 4263 4333 4355 4284 4342 4299 4220 3988 3747 3808 3792 3456 3799 4023 3150 3624 4129 3519 3301 2965 2552 2447 2481 2440 2861 3318 2929 2545 2353 2325 2145 1824 1698 1619 1584 1507 1461 1477 1417 1406 1425 1412 1395 1398 1406 1403 1397 1395 1388 1370 1353 1350 1349 1358 1353 1376 1366 1399 1365 1301 1294 1302 1394 1851 1634 1174 1120 1111 1107 1129 1210 1316 1366 1395 1418 1446 1471 1368 1342 1353 1392 1435 1418 1382 1354 1344 1311 1290 1302 1309 1226 1211 1237 1253 1246 1214 1160 1128 1205 1243 1176 1125 1038 964 939 866 980 1089 1127 1219 1507 1756 1557 1215 1242 1291 1371 1687 1740 1506 1468 1226 1070 1257 1464 1430 1282 1363 1125 1229 1191 1031 793 597 352 291 281 91 75 67 60 51 47 44 36 31 28 25 21 17 17 16 15 14 13 12 11 11 11 12 12 11 9 7 7 5 3 3 3 4 4 5 6 4 5 5 2 1 0 -7 -11 -11 -11 -7 -1 0 -1 0 6 90 234 179 203 165 103 87 74 61 61 58 49 99 87 64 110 148 74 149 88 2 -12 -14 -19 -22 -24 -27 -30 -33 -35 -35 -35 -35 -35 -35 -35 -35 -35 -35 -35 -35 -35 -35 -35 -35 -35 -35 -35 -35 -35 -35 -35 -35 -35 -35 -35 -35 -35 -35 -35 -35 -35 -35 -35 -35 -35 -35 -35 -35 -35 -35 -35 -35 -35 -35 -35 -35 -35 -35 -35 68 528 706 706 706 706 706 706 706
5704 5704 5708 6016 6192 6192 6192 6192 6223 7065 7244 7018 6869 6081 6144 6543 6830 6870 6891 6264 6227 6002 5807 5794 5712 5736 5617 5492 5455 5419 5310 5108 5410 5727 5605 5115 5493 5564 5231 5199 5803 5615 5280 5419 4852 4211 4222 4628 4508 4660 4409 3551 3177 3030 3062 3049 3021 3004 2767 3030 3155 3428 4147 4223 4135 4582 4400 4950 4393 3882 3910 4238 4352 4136 4147 4372 3894 3658 3839 4141 4187 4214 4184 4865 5038 5001 5749 5694 5680 5474 5494 5130 5057 5041 4840 4679 4994 5232 5094 5147 5048 4993 4989 4714 4378 4273 4205 4231 4388 4397 4671 4911 4801 4573 4509 4497 4463 4520 4585 4703 4863 4723 4733 4573 4312 4133 4042 4000 3949 3922 3889 3885 3893 4003 4284 4678 4590 4671 4211 4132 4397 4637 4167 3879 3581 3492 3369 3184 3063 2972 2988 3132 3071 2943 2793 2777 2789 2770 2744 2728 2704 2706 2694 2701 2754 2770 2711 2681 2715 2785 2796 2796 2800 2853 2909 2999 3209 3400 3317 3893 4760 4703 4857 4820 4679 4423 4316 4423 4614 4873 4918 4575 4419 4396 4483 4418 4474 4271 4202 4153 4140 4149 4180 4325 4421 4262 4065 4155 4391 4650 4489 4341 4221 4159 4082 4130 4349 4054 3796 3485 3579 3417 3026 4047 4231 4017 3896 2950 2648 2620 2642 2652 2778 2583 2341 2194 2083 2051 1941 1769 1740 1694 1553 1479 1442 1437 1448 1486 1496 1441 1433 1427 1419 1411 1402 1398 1393 1377 1362 1350 1350 1349 1349 1353 1389 1385 1357 1349 1392 1530 1814 1374 1148 1124 1114 1119 1173 1248 1321 1369 1400 1440 1485 1486 1358 1335 1349 1386 1427 1403 1404 1354 1342 1311 1278 1262 1289 1232 1181 1195 1223 1219 1199 1165 1102 1146 1210 1166 1110 1069 955 864 980 1073 1160 1208 1252 1518 1703 1443 1429 1305 1241 1450 1721 1603 1570 1419 1198 1079 1082 1501 1357 1343 1414 1103 992 1012 1002 962 658 375 300 293 107 70 61 56 48 46 41 35 31 28 25 22 19 17 17 16 15 14 13 12 12 14 13 12 10 9 8 7 6 4 4 4 4 5 6 7 7 6 4 3 0 0 -7 -10 -11 -11 -2 0 -1 0 1 49 56 209 198 220 247 150 185 156 160 75 83 100 236 213 62 65 106 88 67 44 1 -12 -13 -13 -13 -13 -13 -13 -13 -13 -16 -19 -22 -24 -27 -30 -33 -35 -35 -35 -35 -35 -35 -35 -35 -35 -35 -35 -35 -35 -35 -35 -35 -35 -35 -35 -35 -35 -35 -35 -35 -35 -35 -35 -35 -35 -35 -35 -35 -35 -35 -35 -35 -35 -35 -35 -35 -35 -35 -35 -35 -27 283 676 706 706 706 706 706
5704 5708 6016 6192 6192 6192 6192 6192 6786 7244 7018 6916 6209 6010 6499 6786 6870 6921 6423 6362 6092 5938 5880 5777 5545 5291 5301 5410 5351 5430 5608 5257 5236 5671 5362 5171 5265 5031 4908 5316 5600 5730 5595 5406 5012 4640 4970 4995 4723 4598 5063 5037 4356 4291 4259 3800 4046 3502 3693 4014 3817 4367 5227 5457 4724 4606 4883 4672 4452 4444 4901 4692 4696 4912 4704 4287 4452 4419 4331 4686 4671 4800 4402 4547 4609 4555 4809 4719 4553 4515 4659 4778 4879 4959 4869 4797 4860 4991 5065 5152 5116 5154 5223 5002 4624 4433 4309 4315 4523 4444 4393 4455 4545 4454 4396 4375 4337 4327 4340 4398 4619 4641 4658 4653 4439 4148 4054 4013 3998 4024 3991 3952 3912 3899 3909 4120 4706 4961 4455 4218 4185 4404 4333 4075 3926 3709 3520 3346 3203 3063 3018 3053 3096 3122 2977 2797 2810 2809 2777 2738 2701 2692 2684 2684 2732 2800 2747 2731 2738 2734 2784 2798 2797 2853 2902 2951 3072 3303 3178 3235 3435 4525 4862 4553 4603 4361 4156 4215 4348 4530 4784 4686 4487 4332 4304 4339 4568 4634 4519 4327 4326 4269 4251 4338 4393 4203 4028 4188 4336 4269 4209 4256 4285 4125 4033 4025 3929 4012 3880 4099 3556 3301 2957 3192 3654 3947 3843 3353 3187 2900 2860 2770 2648 2496 2357 2263 2161 2054 1944 1845 1692 1592 1525 1474 1444 1447 1465 1469 1467 1461 1454 1445 1440 1437 1421 1406 1401 1390 1375 1361 1358 1345 1348 1353 1390 1399 1423 1454 1504 1553 1680 1334 1151 1122 1119 1193 1283 1256 1316 1363 1403 1449 1496 1465 1362 1334 1351 1375 1395 1386 1395 1362 1346 1308 1284 1245 1235 1217 1182 1164 1186 1166 1159 1155 1079 1134 1175 1207 1132 1052 968 895 1032 1188 1392 1186 1260 1513 1634 1688 1676 1501 1240 1336 1536 1551 1471 1373 940 954 1022 1294 1335 1276 1265 1182 1082 892 792 723 561 415 383 449 173 69 57 52 44 43 39 35 32 30 26 23 19 19 18 17 17 16 16 14 13 14 13 11 10 9 7 7 6 6 7 6 5 6 8 9 9 6 4 2 0 0 -6 -10 -11 -8 0 0 2 14 26 116 142 97 183 196 206 283 294 227 89 221 153 133 147 131 58 83 92 64 52 18 -2 -4 -5 -6 -7 -8 -9 -11 -12 -13 -13 -13 -13 -13 -13 -13 -13 -13 -16 -19 -22 -24 -27 -30 -33 -35 -35 -35 -35 -35 -35 -35 -35 -35 -35 -35 -35 -35 -35 -35 -35 -35 -35 -35 -35 -35 -35 -35 -35 -35 -35 -35 -35 -35 -35 -35 -35 -35 -35 -35 -35 -35 -35 68 528 706 706 706 706
5708 6016 6192 6192 6192 6192 6192 6489 7244 7018 6927 6383 5932 6416 6728 6870 6870 6650 6381 6227 6074 5891 5855 5524 5366 5318 5226 5224 5405 5455 5524 5364 4969 5206 5011 5280 5063 4922 4904 5066 5384 5691 5465 5406 5196 5221 5443 5912 5605 4914 4624 5044 5372 5213 5652 5202 5090 4343 5305 4846 4227 4482 4570 5128 5555 5356 5268 5418 5313 4842 5149 5163 4876 4801 4934 5006 4982 4905 4678 4947 4993 5126 4757 4693 4500 4487 4413 4415 4634 4565 4817 4882 4840 4979 5061 5010 4998 4929 4897 4974 4979 4948 4977 4874 4990 4898 4746 4633 4575 4727 4595 4403 4424 4435 4454 4455 4405 4291 4261 4270 4300 4337 4438 4495 4407 4251 4171 4100 4062 4085 4141 4067 3984 3936 3896 3895 3972 4403 4756 4351 4449 4366 4375 4438 4465 4230 3979 3863 3699 3321 3144 3096 3065 3011 3009 2867 2798 2826 2827 2762 2723 2698 2686 2679 2686 2740 2757 2744 2780 2715 2741 2798 2804 2872 2957 2996 3069 3253 3243 3145 3200 3987 4488 4178 4076 4021 3985 4023 4124 4265 4434 4487 4486 4344 4290 4329 4430 4477 4645 4547 4649 4481 4412 4306 4300 4050 3955 4322 4441 4403 4104 4193 4345 4248 4025 3914 3876 3799 3870 3995 4085 4012 3692 3139 3342 3713 3684 3671 3583 3648 3206 2970 2881 2920 2734 2938 2655 2321 2047 1898 1737 1596 1522 1475 1455 1480 1497 1501 1489 1489 1476 1474 1475 1453 1441 1436 1417 1402 1394 1392 1365 1351 1350 1351 1360 1392 1485 1531 1536 1467 1351 1241 1154 1122 1124 1209 1309 1288 1350 1370 1412 1467 1509 1454 1351 1345 1354 1375 1390 1377 1382 1365 1361 1324 1271 1223 1186 1170 1159 1130 1132 1120 1070 1089 1076 1086 1109 1142 1134 1051 966 894 1039 1136 1187 1112 1233 1520 1500 1712 1700 1442 1445 1309 1215 1269 1262 1143 828 972 1374 1304 1173 1101 1149 1166 1083 848 712 706 815 632 547 458 221 81 57 53 40 38 36 34 30 28 24 21 19 20 19 17 16 16 17 16 15 14 12 11 10 9 8 9 8 9 8 7 6 7 9 8 7 5 4 2 1 0 0 -3 -4 0 1 0 3 14 41 101 161 148 162 150 171 192 235 195 101 220 148 103 103 104 46 43 48 46 48 38 0 -2 -2 -2 -2 -2 -2 -2 -2 -2 -3 -4 -6 -7 -8 -9 -11 -12 -13 -13 -13 -13 -13 -13 -13 -13 -16 -19 -22 -24 -27 -30 -33 -35 -35 -35 -35 -35 -35 -35 -35 -35 -35 -35 -35 -35 -35 -35 -35 -35 -35 -35 -35 -35 -35 -35 -35 -35 -35 -35 -35 -35 -35 -35 -27 283 676 706 706
6016 6192 6192 6192 6192 6192 6276 7148 7018 6927 6568 5902 6295 6659 6870 6870 6754 6388 6362 6092 6065 5726 5468 5428 5428 5459 5383 5502 5477 5506 5484 5534 5306 5080 5007 5092 5195 5053 4872 4892 5183 5495 5682 6031 5671 5431 5583 5826 5531 5100 4908 4825 4761 4951 5162 5078 5075 4761 5360 4976 4429 4569 4364 4853 4852 4678 4651 4609 4611 4850 5021 5007 5081 5060 5014 5107 5161 5085 4971 5001 5060 5080 4936 4829 4738 4849 4775 4679 4767 4688 4608 4782 4928 4937 4932 4854 4829 4823 4842 4943 4990 4993 4904 4785 4832 5046 5120 5020 4707 4741 4610 4508 4540 4547 4525 4621 4590 4352 4275 4292 4316 4296 4401 4393 4337 4385 4387 4185 4101 4132 4240 4116 4091 4032 3957 3923 3935 3968 4273 4641 4510 4526 4672 4750 4574 4494 4553 4584 4028 3595 3326 3176 3092 3008 3013 2872 2793 2756 2798 2781 2768 2732 2699 2686 2687 2690 2698 2716 2745 2704 2720 2790 2808 2895 2953 3058 3117 3266 3414 3360 3221 3591 4156 4026 3963 3898 3912 3921 3956 4011 4104 4167 4246 4249 4256 4298 4240 4299 4468 4510 4539 4595 4398 4395 4304 4041 3927 4009 4347 4315 4058 4284 4269 4335 4244 4083 3932 3832 3813 3737 3752 3860 3932 3734 3313 3197 3343 3575 3657 3822 3677 3211 2963 3134 3032 3137 3210 2581 2594 2202 1805 1664 1565 1484 1477 1500 1531 1519 1503 1502 1500 1496 1495 1486 1472 1468 1450 1436 1438 1445 1410 1373 1352 1350 1352 1373 1427 1464 1493 1439 1331 1197 1134 1122 1122 1179 1262 1308 1362 1398 1435 1466 1511 1468 1349 1344 1369 1376 1375 1370 1360 1349 1335 1302 1261 1210 1175 1124 1121 1110 1101 1085 1106 1048 1031 998 1012 1057 1119 1083 982 854 971 1039 1089 1058 1184 1417 1521 1871 1880 1596 1608 1437 1216 1104 1189 1219 840 926 1253 1166 1176 1109 1127 1127 1059 898 714 851 959 813 676 463 192 102 56 49 36 35 32 30 29 25 22 21 21 22 21 19 19 17 18 18 16 15 13 12 11 10 10 10 13 9 8 8 8 9 11 8 6 5 3 2 2 0 0 0 0 0 0 -1 2 30 76 143 172 136 126 133 123 117 165 159 150 98 73 91 81 68 31 8 19 42 48 50 0 -1 -1 -1 -1 -1 -1 -1 -2 -2 -2 -2 -2 -2 -2 -2 -2 -2 -2 -3 -4 -6 -7 -8 -9 -11 -12 -13 -13 -13 -13 -13 -13 -13 -16 -19 -22 -24 -27 -30 -33 -35 -35 -35 -35 -35 -35 -35 -35 -35 -35 -35 -35 -35 -35 -35 -35 -35 -35 -35 -35 -35 -35 -35 -35 -35 68 528 706
6192 6192 6192 6192 6192 6192 6936 7018 6927 6722 5932 6144 6597 6866 6870 6845 6439 6381 6227 6039 5381 5047 5047 5047 5099 5358 5359 5590 5727 5768 5728 5566 5367 5241 5354 5093 5056 5005 5050 4903 4955 5263 5462 5661 5552 5604 5568 5444 5309 5467 5086 5014 4771 5570 5440 4949 4898 5141 5348 5012 5186 5043 4475 4538 4667 4705 4813 4865 4799 4836 4958 4962 4983 5015 5074 5043 5023 5015 5027 4964 4948 4986 4994 4958 4905 4823 4779 4770 4726 4682 4690 4697 4802 4861 4878 4849 4817 4813 4801 4826 4959 4975 4893 4823 4884 4963 4918 4851 4762 4800 4734 4703 4747 4788 4652 4664 4634 4567 4432 4430 4398 4395 4423 4528 4352 4272 4243 4210 4154 4189 4188 4152 4236 4129 4011 3992 4077 4074 4012 4259 4883 4800 4755 4869 4740 4454 4438 4498 4382 3750 3414 3274 3133 3005 2953 2902 2807 2756 2747 2754 2750 2743 2716 2695 2692 2688 2685 2682 2699 2695 2739 2800 2840 2912 2991 3068 3157 3269 3390 3467 3345 3347 3994 4148 3943 3790 3825 4093 4042 4000 4057 4185 4333 4295 4243 4085 4063 4175 4375 4403 4385 4486 4411 4398 4440 4318 4078 4107 4339 4120 4112 4381 4270 4140 4192 4186 4143 4139 4022 3901 3800 3642 3619 3721 3861 3758 3455 3512 3451 3742 3789 3461 3247 3222 3227 2934 2711 2698 2789 2594 2008 1812 1596 1503 1499 1521 1565 1579 1570 1554 1547 1516 1504 1506 1508 1511 1493 1472 1462 1459 1434 1400 1389 1383 1373 1382 1366 1406 1509 1460 1331 1217 1134 1123 1126 1170 1272 1363 1367 1398 1418 1450 1493 1464 1322 1333 1358 1368 1368 1366 1348 1332 1314 1290 1259 1220 1198 1196 1176 1187 1147 1169 1126 1142 1106 1065 1016 979 1059 1069 989 925 847 961 1024 1008 1144 1298 1686 2066 2101 1834 1693 1510 1313 1295 1495 1294 854 814 902 1003 1012 1043 1129 1242 1321 1016 877 958 1065 844 813 366 182 107 70 45 34 34 30 26 25 24 21 21 22 24 22 20 20 19 21 19 17 17 15 14 12 12 12 11 12 12 10 11 12 10 9 8 5 5 4 2 3 1 0 0 0 0 0 3 25 85 202 164 157 120 108 131 105 95 122 157 190 156 70 44 108 78 4 4 11 17 43 10 -2 -3 -3 -3 -3 -3 -3 -3 -3 -3 -3 -3 -3 -3 -3 -3 -3 -3 -3 -3 -2 -2 -2 -2 -2 -2 -2 -3 -4 -5 -6 -7 -8 -10 -11 -12 -13 -13 -13 -13 -13 -13 -16 -19 -22 -24 -27 -30 -33 -35 -35 -35 -35 -35 -35 -35 -35 -35 -35 -35 -35 -35 -35 -35 -35 -35 -35 -27 233
6192 6192 6192 6192 6192 6617 7018 6927 6824 6014 6010 6536 6840 6870 6870 6561 6381 6362 5941 5123 4915 4915 4915 5031 5385 5669 5412 5654 5637 5764 5732 5599 5602 5515 5456 5305 5209 5019 4857 4945 5017 5150 5260 5486 5409 5538 5809 5749 5850 5524 5322 5128 4799 4965 5541 5229 4801 4750 4858 4843 4822 4946 4849 4738 4603 4793 4959 5217 5148 5015 5036 5030 5105 5181 5261 5235 5193 5145 5145 5128 5026 5035 4941 4881 4894 4818 4807 4837 4827 4822 4824 4791 4783 4819 4871 4900 4968 4944 4871 4865 4799 4808 4927 5035 4838 4941 4946 4856 4788 4904 4959 4927 4946 4981 4765 4757 4632 4677 4789 4843 4751 4525 4502 4526 4532 4336 4330 4256 4243 4243 4206 4191 4155 4118 4067 4002 4116 4205 4194 4134 4371 4628 4850 4795 4786 4533 4281 4083 4037 3961 3578 3384 3228 3059 2943 2916 2885 2795 2778 2798 2786 2739 2721 2701 2700 2696 2692 2684 2684 2699 2710 2770 2791 2854 2967 3027 3136 3240 3374 3343 3229 3192 3350 3608 3811 3744 3615 3772 3963 4111 4124 4285 4260 4241 4327 4377 4306 3973 4061 4122 4401 4390 4509 4426 4354 4185 4025 3980 4005 3946 4029 4254 4047 4029 4147 4040 4233 4263 4212 4113 3947 3790 3641 3705 3718 3949 3915 3912 3837 3643 3803 3687 3728 3517 3060 2809 2760 2940 2586 2511 2552 2522 1766 1575 1540 1551 1587 1616 1619 1604 1596 1578 1553 1541 1539 1536 1513 1512 1508 1491 1439 1446 1465 1455 1446 1417 1379 1394 1498 1436 1338 1237 1168 1137 1129 1163 1326 1457 1449 1427 1445 1462 1502 1492 1343 1340 1346 1350 1351 1355 1348 1328 1308 1283 1251 1225 1272 1282 1201 1234 1156 1222 1183 1223 1150 1094 1069 1009 979 1066 1080 997 862 842 961 950 1081 1224 1479 1806 1796 1573 1548 1579 1609 1518 1425 1187 796 774 799 873 959 1163 1193 1197 1273 1268 966 953 908 858 896 412 214 172 69 39 31 29 26 26 26 24 24 26 24 24 24 22 20 20 21 20 16 16 16 14 14 13 13 14 15 14 15 12 13 9 7 6 5 4 4 3 4 2 1 0 0 1 0 4 28 99 275 170 146 100 97 90 54 68 103 168 254 125 123 28 42 18 1 7 4 -8 -3 0 0 -3 -3 -3 -3 -3 -3 -3 -3 -3 -3 -3 -3 -3 -3 -3 -3 -3 -3 -3 -3 -3 -3 -3 -3 -3 -3 -3 -3 -3 -3 -3 -3 -3 -3 -2 -3 -4 -5 -6 -7 -8 -9 -10 -11 -12 -12 -13 -13 -13 -16 -19 -22 -24 -27 -30 -33 -35 -35 -35 -35 -35 -35 -35 -35 -35 -35 -35 -35
6192 6192 6192 6192 6352 6976 6927 6896 6137 5932 6430 6804 6870 6870 6718 6381 6381 5911 4996 4924 5127 5416 5736 5986 5983 5893 5665 5412 5381 5608 5534 5359 5770 5539 5455 5225 5246 5104 4900 4956 4958 4952 5143 5288 5362 5275 5836 6077 6067 5854 5764 5645 5577 5039 5055 5209 5169 4850 4914 5083 5128 5115 5118 4939 5202 5173 5118 5194 5147 5081 5180 5219 5192 5319 5348 5247 5196 5202 5226 5218 5097 5070 5103 5039 4967 4939 4960 5014 4999 4991 5057 5001 4917 4992 4981 5050 5048 5017 4978 4953 4884 4930 5039 4936 4959 5051 5007 5086 4940 5106 5144 5188 5103 4880 4753 4919 4804 4725 4732 4733 4663 4602 4662 4686 4631 4513 4651 4451 4342 4309 4267 4225 4160 4090 4052 4084 4146 4300 4239 4176 4269 4523 4755 4714 4637 4563 4566 4204 3928 3757 3610 3462 3292 3171 2988 2904 2851 2818 2800 2805 2855 2800 2739 2712 2711 2704 2700 2691 2693 2702 2702 2729 2765 2782 2869 2968 3085 3172 3235 3247 3258 3178 3207 3276 3388 3447 3689 3649 3802 3956 3686 3902 3830 3773 4103 4136 4310 4456 4175 3968 3974 4024 4327 4606 4485 4163 4132 3946 3736 4004 4151 4236 4111 3977 3902 3939 3987 4171 4057 3989 3886 3910 3898 3994 3755 3599 3808 3893 3960 3670 3625 3713 4064 3827 3429 2996 3166 2864 2824 2830 2536 2391 1998 1724 1619 1591 1595 1643 1682 1669 1647 1622 1596 1571 1562 1563 1581 1583 1567 1513 1500 1502 1501 1467 1440 1452 1440 1458 1500 1499 1347 1208 1309 1200 1154 1190 1306 1448 1427 1411 1475 1522 1586 1465 1378 1381 1374 1341 1331 1352 1349 1343 1315 1300 1288 1271 1299 1318 1258 1209 1219 1266 1239 1212 1168 1150 1077 1035 956 1026 1109 1054 917 796 880 1016 1175 1205 1466 1757 1761 1468 1327 1445 1319 1272 991 825 769 774 801 916 1053 1260 1378 1328 1397 1466 1060 1046 1000 1028 970 580 215 183 90 54 32 25 25 26 26 26 25 27 26 25 24 23 21 22 22 19 17 17 16 16 15 14 14 15 15 16 16 11 8 8 6 7 7 6 3 4 7 4 2 2 2 3 3 13 34 89 275 156 113 95 89 92 62 57 97 136 146 73 70 47 33 1 -2 5 -7 -15 -5 -2 -1 -2 -3 -3 -3 -3 -3 -3 -3 -3 -3 -3 -3 -3 -3 -3 -3 -3 -3 -3 -3 -3 -3 -3 -3 -3 -3 -3 -3 -3 -3 -3 -3 -3 -3 -3 -3 -3 -3 -3 -3 -3 -3 -3 -3 -3 -3 -3 -4 -5 -6 -7 -8 -9 -10 -11 -12 -13 -16 -19 -22 -24 -27 -30 -33 -35 -35 -35 -35
6192 6192 6192 6214 6816 6927 6927 6291 5902 6295 6753 6870 6870 6830 6420 6316 5980 5455 5515 5621 5734 5842 5943 5808 5879 6214 5887 5687 5818 5492 5455 5437 5734 5651 5392 5225 5214 5110 4913 4898 4898 4881 4976 5183 5202 5338 5439 6034 6124 5971 6213 5984 6089 5968 5560 5336 5081 5378 5311 5365 5314 5145 4743 5180 5538 5486 5170 5217 5208 5144 5147 5157 5206 5255 5245 5162 5163 5245 5236 5181 5116 5079 5117 5005 4933 4975 5024 5058 5011 5019 5136 5139 5115 5183 5074 5103 5186 5129 5104 5082 5011 5054 5074 5041 5082 5251 5141 5125 5092 5455 5501 5300 5029 4886 5013 5036 4943 4866 4867 4808 4724 4668 4710 4860 4769 4742 4733 4584 4469 4359 4337 4479 4295 4134 4123 4165 4244 4376 4413 4290 4193 4291 4359 4523 4703 4703 4344 4228 4048 3844 3645 3473 3306 3175 3053 2956 2877 2846 2818 2807 2796 2795 2763 2730 2725 2718 2706 2698 2690 2695 2699 2701 2700 2697 2718 2800 2889 2941 3008 3137 3280 3344 3540 3199 3296 3326 3573 3789 3638 3629 3375 3287 3252 3349 3744 4034 4203 4090 4119 4106 4042 4066 4417 4435 4349 4070 4087 4063 3745 3833 3988 4115 4007 3971 3870 3816 4059 4141 4137 3889 3726 3947 3926 3733 3887 3577 3466 3634 3648 3562 3309 3361 3809 4369 3810 3576 3397 3213 3579 3152 2771 2411 2193 1932 1736 1687 1651 1661 1714 1715 1708 1695 1658 1607 1590 1594 1630 1639 1618 1559 1501 1488 1490 1391 1383 1397 1420 1425 1490 1532 1320 1191 1482 1329 1228 1238 1286 1333 1356 1369 1408 1464 1539 1481 1361 1325 1335 1367 1353 1372 1370 1363 1347 1338 1320 1319 1324 1350 1303 1242 1300 1272 1199 1142 1094 1081 1034 1016 968 982 1093 1119 1021 829 894 1192 1228 1197 1304 1474 1850 1680 1471 1234 1069 895 761 759 766 781 820 937 1226 1374 1440 1424 1538 1488 1311 1193 1106 1250 1081 554 252 138 99 93 47 26 25 26 29 27 27 29 26 27 25 23 21 23 22 18 18 18 17 17 15 15 14 15 16 14 12 11 9 6 9 11 12 10 6 7 10 7 6 8 7 8 5 15 28 87 163 109 83 62 53 77 58 55 91 88 56 38 12 -3 8 3 5 -2 -15 -15 -5 -2 -2 -1 -2 -3 -3 -3 -3 -3 -3 -3 -3 -3 -3 -3 -3 -3 -3 -3 -3 -3 -3 -3 -3 -3 -3 -3 -3 -3 -3 -3 -3 -3 -3 -3 -3 -3 -3 -3 -3 -3 -3 -3 -3 -3 -3 -3 -3 -3 -3 -3 -3 -3 -3 -3 -3 -3 -3 -3 -3 -4 -5 -6 -7 -8 -9 -10 -14 -18 -21
6192 6192 6192 6596 6927 6927 6476 5902 6144 6684 6870 6870 6870 6468 5987 5694 5666 5666 5666 5666 5666 5666 5666 5655 5313 5259 5226 5689 5694 5733 5526 5559 5601 5500 5383 5272 5299 5195 4980 5078 5031 4867 4902 4992 5105 5289 5246 5565 6085 6254 6307 6197 6418 6276 6012 5631 5519 6109 5702 5387 5299 4986 5427 5959 5901 5307 5373 5398 5314 5264 5165 5170 5056 5009 5044 5063 5099 5150 5188 5189 5138 5102 5100 5124 5076 5017 5063 5062 5035 5027 5075 5135 5147 5175 5121 5187 5174 5113 5101 5145 5125 5156 5225 5229 5241 5203 5321 5451 5552 5977 5394 5190 5096 5003 4946 5008 4979 5056 5117 5050 4910 4865 4774 4724 4742 4881 4889 4720 4722 4557 4440 4567 4832 4601 4280 4289 4369 4404 4521 4479 4310 4159 4137 4179 4258 4560 4588 4372 4338 3982 3750 3563 3385 3249 3138 3017 2940 2894 2862 2834 2815 2791 2764 2742 2728 2717 2703 2694 2686 2681 2685 2689 2682 2683 2693 2708 2766 2800 2841 2927 3028 3099 3353 3132 3189 3260 3422 3515 3768 3681 3144 3030 3006 3008 3093 3237 3373 3345 3721 3789 3527 3747 3977 3974 4204 4119 3829 3804 3737 3825 3948 3890 3831 3876 3885 3875 3998 3982 4020 3892 3701 3738 3842 3790 3761 3874 3737 3566 3628 3506 3223 3220 3263 3940 4226 4052 3682 3793 4154 4017 3462 3055 2823 2647 1958 1810 1762 1740 1788 1784 1757 1737 1694 1643 1603 1636 1727 1724 1683 1615 1517 1464 1396 1324 1308 1337 1352 1383 1442 1469 1267 1177 1326 1384 1293 1279 1308 1331 1360 1379 1444 1493 1556 1451 1345 1357 1363 1390 1397 1414 1406 1364 1364 1339 1355 1363 1346 1378 1327 1271 1347 1285 1197 1134 1090 1072 1048 1011 971 937 1026 1045 984 841 901 1120 1054 1087 1312 1588 1743 1714 1570 1482 1006 756 752 757 767 797 888 1053 1244 1522 1538 1587 1573 1417 1364 1405 1283 1179 752 617 363 159 85 50 35 28 27 28 29 30 29 29 28 27 27 26 25 29 22 20 20 19 18 17 16 16 16 17 16 15 13 13 15 14 16 23 25 22 19 17 16 10 10 11 17 18 17 26 27 45 68 65 68 44 51 49 50 56 50 51 17 7 3 -3 2 -6 4 12 -12 -15 -5 -2 -2 -2 -2 -2 -3 -3 -3 -3 -3 -3 -3 -3 -3 -3 -3 -3 -3 -3 -3 -3 -3 -3 -3 -3 -3 -3 -3 -3 -3 -3 -3 -3 -3 -3 -3 -3 -3 -3 -3 -3 -3 -3 -3 -3 -3 -3 -3 -3 -3 -3 -3 -3 -3 -3 -3 -3 -3 -3 -3 -3 -3 -3 -3 -3 -3 -3 -3 -3 -3
6192 6192 6390 6919 6927 6650 5912 6010 6601 6866 6870 6816 6359 5942 5928 5928 5928 5928 5928 5928 5928 5928 5928 5928 5928 5874 5154 5381 5402 5479 5502 5391 5336 5307 5274 5283 5322 5194 5150 5052 5189 4992 4893 4889 4995 5128 5182 5305 5674 5979 5950 6186 6107 6179 6055 5940 5938 5723 5406 5332 5523 5718 5881 5879 5381 5297 5482 5315 5159 5345 5287 5143 5061 4977 4949 4999 5041 5050 5027 5017 5035 5037 5108 5188 5172 5119 5132 5130 5108 5045 4972 5008 5073 5094 5150 5084 5055 5105 5108 5202 5288 5294 5353 5353 5365 5340 5381 5616 5837 5757 5463 5340 5176 5164 5164 5105 5103 5093 5136 5170 5102 5009 4846 4790 4773 4808 4969 5052 4927 4796 4711 4624 4568 4710 4808 4563 4622 4623 4625 4821 4487 4339 4122 4018 3966 4021 4124 4269 4478 4396 4011 3825 3618 3429 3253 3166 3093 3000 2931 2888 2847 2811 2786 2758 2735 2720 2709 2696 2688 2680 2676 2676 2676 2679 2679 2688 2695 2736 2777 2846 2951 2924 3015 3190 3323 3527 3447 3378 3423 3724 3475 2955 2846 2834 2904 2922 2955 2993 3164 3249 3219 3193 3301 3498 3703 3838 3927 3968 3729 3658 3675 3653 3625 3666 3648 3796 3766 3823 3760 3648 3673 3534 3699 3656 3594 3997 3719 3877 4108 4000 3510 3208 3153 3335 3891 4250 4018 3912 4152 4124 3607 3116 2832 2439 2194 1986 1960 1982 1934 1896 1801 1783 1773 1734 1654 1610 1674 1716 1664 1595 1571 1527 1427 1327 1291 1256 1264 1286 1301 1239 1192 1199 1364 1395 1315 1292 1356 1391 1399 1411 1483 1505 1577 1483 1380 1397 1408 1412 1418 1469 1407 1389 1445 1410 1485 1578 1467 1553 1394 1362 1375 1284 1190 1200 1178 1150 1101 1063 996 924 942 1039 872 794 884 956 1118 1158 1538 1589 1625 1556 1249 1004 801 747 751 763 804 1006 1241 1255 1357 1374 1400 1456 1523 1464 1420 1508 1360 797 536 457 261 161 80 43 31 29 28 29 29 29 30 30 29 28 28 26 27 29 23 21 20 18 18 18 18 18 19 19 19 18 23 23 23 22 39 48 44 37 36 30 24 20 15 17 24 23 20 18 13 17 26 33 32 34 39 45 50 46 40 24 9 11 7 -3 -3 -6 -6 4 -5 -15 -5 -2 -2 -2 -2 -2 -2 -3 -3 -3 -3 -3 -3 -3 -3 -3 -3 -3 -3 -3 -3 -3 -3 -3 -3 -3 -3 -3 -3 -3 -3 -3 -3 -3 -3 -3 -3 -3 -3 -3 -3 -3 -3 -3 -3 -3 -3 -3 -3 -3 -3 -3 -3 -3 -3 -3 -3 -3 -3 -3 -3 -3 -3 -3 -3 -3 -3 -3 -3 -3 -3
6192 6250 6860 6927 6783 5963 5932 6477 6848 6861 6497 6053 5983 5983 5983 5983 5983 5983 5983 5983 5983 5987 6016 6052 6108 6158 5703 5330 5356 5603 5516 5469 5374 5270 5233 5220 5259 5284 5197 5033 5002 4965 5023 4903 4892 4952 5057 5178 5451 5459 5857 5605 5658 5458 5553 6118 5634 5497 5524 5580 5727 5634 5470 5299 5180 5159 5137 5124 5227 5307 5068 5166 5154 5036 5002 4986 4982 4937 4862 4844 4920 4997 5046 5076 5076 5078 5089 5052 5049 5040 5004 5000 5000 5009 5024 5018 4996 4987 5038 5073 5165 5195 5310 5169 5211 5109 5120 5149 5231 5237 5303 5297 5153 5125 5119 5028 4983 5074 5057 5109 5151 5015 4919 4835 4786 4748 4815 4920 5157 5020 4752 4855 4818 4744 4770 4712 4647 4758 5004 5101 4923 4756 4513 4432 4121 3904 3821 3829 3960 4355 4328 4313 4024 3732 3484 3308 3158 3067 2988 2923 2868 2834 2814 2776 2736 2717 2711 2704 2689 2680 2675 2675 2676 2677 2677 2679 2674 2680 2692 2719 2756 2817 2833 3144 3249 3455 3610 3401 3258 3276 3224 3047 2876 2813 2831 2871 2880 2898 2970 3345 3465 3422 3434 3756 3701 3624 3682 4052 4158 3915 3579 3465 3462 3468 3469 3547 3566 3645 3586 3485 3524 3469 3566 3558 3468 3843 3882 4112 4173 4099 3737 3439 3127 2997 3189 3396 3762 3779 3852 3586 3691 3474 2724 2485 2405 2230 2352 2358 2250 2054 1897 1910 2134 2094 1800 1602 1663 1740 1710 1670 1628 1631 1535 1391 1273 1265 1265 1219 1211 1195 1213 1276 1330 1362 1315 1314 1366 1380 1392 1457 1513 1540 1581 1471 1432 1535 1565 1573 1634 1617 1502 1541 1553 1518 1628 1578 1507 1511 1437 1354 1312 1265 1295 1248 1185 1136 1098 1053 1025 985 898 1010 875 802 944 1014 1145 1297 1436 1592 1410 1142 867 758 749 746 753 823 974 1363 1553 1366 1217 1197 1335 1342 1426 1472 1690 1344 1207 679 495 379 303 168 84 49 35 30 30 31 30 30 30 30 30 28 30 28 26 27 24 23 21 19 18 19 20 22 20 19 26 78 144 48 39 39 95 94 98 63 50 48 50 59 40 38 62 31 21 10 9 11 16 20 19 27 40 62 50 51 51 32 2 7 11 0 -4 -6 -6 -6 -6 -15 -5 -2 -2 -2 -2 -2 -2 -2 -3 -3 -3 -3 -3 -3 -3 -3 -3 -3 -3 -3 -3 -3 -3 -3 -3 -3 -3 -3 -3 -3 -3 -3 -3 -3 -3 -3 -3 -3 -3 -3 -3 -3 -3 -3 -3 -3 -3 -3 -3 -3 -3 -3 -3 -3 -3 -3 -3 -3 -3 -3 -3 -3 -3 -3 -3 -3 -3 -3 -3 -3 -3
6192 6713 6927 6865 6066 5902 6317 6819 6630 6133 5983 5983 5983 5983 5983 5983 5983 5994 6028 6061 6096 6124 6129 6129 6129 6128 6169 5932 5442 5462 5540 5544 5465 5372 5288 5254 5254 5323 5362 5270 5279 5134 5147 5023 5060 5006 5009 5082 5148 5366 5442 5271 5259 5339 5681 5712 5489 5648 5846 5886 5643 5358 5342 5248 5207 5130 5058 5103 5292 5244 5032 5177 5042 4961 4921 4905 4895 4885 4880 4895 4939 4919 4981 5054 5037 5014 5047 5012 5045 5048 4990 5010 5089 5081 5021 4975 4966 4961 4966 4976 4974 5025 5164 5096 5112 5034 4997 5004 5036 5037 5066 5121 5110 5051 4996 4950 4918 4915 4928 5064 5171 5062 5084 5013 4906 4758 4741 4786 4943 5080 4976 4820 4736 4925 4992 4891 4732 4762 4911 4981 4880 5182 5193 5094 4597 4208 3910 3733 3704 3777 3834 4001 4293 4220 3773 3388 3193 3153 3088 3009 2917 2889 2866 2804 2742 2724 2715 2706 2692 2684 2679 2676 2676 2679 2680 2680 2675 2670 2672 2681 2689 2705 2720 2775 2904 2938 3009 3201 3237 3219 3080 2964 2866 2808 2840 2872 2877 2874 2867 3010 3197 3481 3500 3816 4037 3923 3515 4022 4232 4217 3749 3500 3409 3372 3379 3396 3469 3427 3351 3294 3302 3294 3321 3381 3370 3499 3675 3957 3928 3705 3686 3727 3669 3402 2975 2892 2991 3216 3548 3591 3662 3360 3123 2884 2815 2471 2528 2652 2543 2293 2266 2211 2398 2427 1861 1610 1633 1701 1709 1681 1692 1676 1490 1553 1613 1491 1433 1375 1305 1286 1433 1368 1327 1383 1592 1528 1373 1399 1396 1451 1528 1635 1717 1598 1619 1755 1677 1704 1693 1594 1617 1538 1501 1539 1578 1573 1512 1524 1369 1300 1313 1363 1345 1263 1222 1167 1151 1122 1129 1063 923 917 874 795 958 1098 1272 1523 1541 1451 1183 965 790 739 737 746 780 948 1268 1312 1502 1221 1129 1129 1336 1285 1264 1545 1507 1323 983 636 453 328 325 149 76 51 39 33 32 31 31 32 32 30 29 30 33 32 29 27 26 24 21 19 19 21 22 28 25 29 47 86 294 196 89 69 160 192 291 139 73 76 93 130 78 66 80 34 47 18 10 10 12 16 14 21 40 51 73 37 25 10 -5 -5 -5 -4 -4 -5 -6 -6 -7 -15 -5 -2 -2 -2 -2 -2 -2 -2 -2 -3 -3 -3 -3 -3 -3 -3 -3 -3 -3 -3 -3 -3 -3 -3 -3 -3 -3 -3 -3 -3 -3 -3 -3 -3 -3 -3 -3 -3 -3 -3 -3 -3 -3 -3 -3 -3 -3 -3 -3 -3 -3 -3 -3 -3 -3 -3 -3 -3 -3 -3 -3 -3 -3 -3 -3 -3 -3 -3 -3 -3 -3
6500 6927 6916 6209 5902 6147 6638 6249 5983 5983 5983 5983 5983 6006 6039 6073 6107 6129 6129 6129 6129 6129 6129 6129 6143 6333 6442 6105 5793 5585 5558 5710 5673 5514 5394 5284 5278 5262 5265 5478 5561 5272 5268 5119 5131 5142 5007 5051 5102 5153 5090 5087 5095 5280 5398 5394 5448 5511 5556 5451 5434 5420 5478 5338 5159 5032 4983 4985 5111 5191 5007 5048 4992 4897 4877 4843 4838 4883 4946 4937 4974 4904 4934 4957 5030 4970 4957 4995 5062 5060 5002 5125 5415 5419 5205 5103 5072 5007 4956 4913 4910 4965 4914 4853 4884 4897 4918 4968 4969 4973 4982 4969 4988 4986 4961 4911 4970 5076 5052 5006 5055 5008 4994 5146 5051 4949 4731 4725 4799 5027 5133 5132 4821 4805 4865 4915 4934 4908 4859 4915 5014 5005 5331 5108 4863 4553 4258 3938 3734 3613 3574 3580 3664 3784 4036 3504 3287 3398 3273 3237 3130 3034 2966 2945 2782 2750 2727 2715 2704 2704 2696 2683 2682 2685 2686 2687 2683 2677 2670 2677 2679 2681 2683 2684 2692 2720 2771 2820 2945 3175 3153 2910 2836 2888 2951 2936 2984 2978 2902 2896 2994 3058 3234 3516 3545 3636 3623 4160 3890 3942 3901 3874 3721 3446 3329 3298 3363 3292 3224 3201 3204 3208 3164 3249 3303 3373 3546 3723 4085 3974 3638 3481 3279 3464 3692 3428 2983 3000 3226 3515 3306 3686 3612 3528 3292 2716 2868 2880 2684 2537 2481 2250 2120 2050 1849 1673 1603 1677 1640 1567 1489 1572 1543 1708 1782 1713 1767 1787 1521 1328 1362 1471 1469 1488 1803 1806 1422 1482 1447 1540 1594 1766 1625 1501 1556 1594 1721 1643 1658 1621 1629 1557 1550 1564 1595 1598 1581 1481 1367 1401 1405 1371 1287 1264 1205 1153 1116 1070 1090 1005 912 859 806 907 958 1122 1370 1680 1576 1344 1124 950 809 742 743 806 936 1189 1488 1411 1298 1099 1088 1084 1305 1381 1303 1328 1255 1308 1226 874 595 510 240 145 78 52 42 36 35 34 33 34 33 31 30 32 33 32 30 29 27 24 23 22 22 27 39 46 67 79 86 147 182 179 128 141 318 289 372 315 120 167 203 147 105 109 75 49 43 33 13 14 15 18 15 16 32 40 94 38 -1 0 -4 -4 -4 -4 -4 -4 -5 -6 -6 -14 -5 -2 -2 -2 -2 -2 -2 -2 -2 -2 -3 -3 -3 -3 -3 -3 -3 -3 -3 -3 -3 -3 -3 -3 -3 -3 -3 -3 -3 -3 -3 -3 -3 -3 -3 -3 -3 -3 -3 -3 -3 -3 -3 -3 -3 -3 -3 -3 -3 -3 -3 -3 -3 -3 -3 -3 -3 -3 -3 -3 -3 -3 -3 -3 -3 -3 -3 -3 -3 -3 -3
6904 6927 6383 5902 5989 6226 6000 5983 5987 6016 6051 6085 6117 6129 6129 6129 6129 6129 6129 6129 6129 6129 6129 6160 6388 6442 6326 5957 5926 5777 5437 5400 5685 5610 5453 5388 5401 5293 5220 5309 5433 5418 5273 5396 5540 5296 5270 5244 5191 5495 5473 5346 5295 5274 5136 5057 5065 5097 5143 5186 5316 5386 5613 5650 5252 5028 4988 4930 4930 4927 4906 5016 5000 4942 4927 4877 4907 4947 4918 4899 4875 4846 4955 4963 5018 5003 4995 5009 5031 4990 5053 5311 5629 5433 5250 5167 5107 5033 5005 4936 4975 5006 4868 4819 4796 4805 4866 4844 4833 4889 4908 4919 4914 4941 4926 4991 4999 5080 5131 5098 5067 5003 4900 4915 4968 5025 4873 4754 4740 4909 5087 5168 4990 5125 4905 4810 4806 4874 4929 4908 4906 4857 4896 5176 5005 4712 4371 4243 4014 3846 3698 3563 3480 3433 3567 3503 3689 3814 3455 3536 3324 3164 3163 3090 2870 2785 2744 2732 2724 2724 2707 2696 2695 2694 2693 2695 2689 2681 2676 2677 2677 2679 2680 2678 2675 2680 2688 2700 2742 2889 3207 2995 2816 2899 3023 3010 3037 3072 3179 3037 3150 3125 3023 3268 3146 3264 3489 3667 3949 3653 3715 3982 4060 3636 3626 3404 3253 3269 3191 3200 3200 3200 3200 3208 3249 3347 3517 3463 3527 3664 3574 3493 3378 3162 3363 3425 3400 3308 2998 3015 3124 3343 3645 3360 3035 3075 3165 3370 3166 2891 2697 2451 2250 1985 1800 1661 1570 1502 1435 1482 1744 1808 1639 1776 1930 1907 1918 1836 1779 1436 1312 1468 1720 1683 1652 1706 1475 1545 1511 1592 1689 1686 1620 1519 1511 1629 1620 1608 1575 1562 1525 1579 1590 1592 1649 1647 1598 1462 1347 1359 1403 1382 1308 1228 1162 1130 1100 1062 1011 1032 864 754 936 1112 1000 1139 1428 1730 1645 1274 1087 1038 951 791 837 1216 1392 1567 1641 1400 1109 1100 1075 1065 1230 1322 1439 1494 1056 1247 1279 971 788 445 258 143 82 54 46 39 37 36 35 35 35 33 35 35 33 32 35 29 27 25 24 24 26 37 59 163 231 268 226 290 488 460 221 307 408 457 488 284 117 214 254 167 130 93 75 72 45 33 17 27 20 22 15 12 17 62 255 126 -3 -4 -1 -1 -1 -1 -1 -1 -2 -4 -6 -12 -5 -2 -2 -2 -2 -2 -2 -2 -2 -2 -2 -3 -3 -3 -3 -3 -3 -3 -3 -3 -3 -3 -3 -3 -3 -3 -3 -3 -3 -3 -3 -3 -3 -3 -3 -3 -3 -3 -3 -3 -3 -3 -3 -3 -3 -3 -3 -3 -3 -3 -3 -3 -3 -3 -3 -3 -3 -3 -3 -3 -3 -3 -3 -3 -3 -3 -3 -3 -3 -3 -3
6927 6568 5902 5923 5991 6028 6061 6096 6124 6129 6129 6129 6129 6129 6129 6129 6129 6129 6129 6129 6129 6129 6175 6404 6380 6324 6009 5932 5868 5570 5288 5511 5700 5715 5636 5599 5603 5515 5406 5368 5344 5380 5483 5307 5417 5316 5475 5296 5143 5312 5275 5231 5183 5063 4963 4908 4951 5173 5132 5144 5440 5346 5366 5293 5109 5065 4983 4972 4939 4953 4976 4993 5014 5062 5074 4999 5040 5037 4981 4950 4985 4904 4886 4878 4963 5032 5019 4910 4892 4940 5090 5426 5718 5384 5243 5140 5103 5091 5051 5039 4980 4999 4990 4968 4898 4876 4883 4901 4879 4893 4897 4898 4915 4904 4879 4894 4953 4897 4930 5003 4986 4942 4921 4928 4961 4917 4951 4934 4745 4774 4877 4953 5062 5088 5209 5045 4893 4896 4900 4943 4971 4929 4735 4723 4791 4485 4697 4523 4355 4356 4120 4055 3765 3629 3472 3411 3793 4355 3804 3666 3508 3261 3149 3233 3038 2842 2781 2754 2748 2747 2737 2730 2722 2709 2703 2699 2694 2686 2680 2678 2678 2680 2679 2678 2679 2683 2685 2692 2698 2728 2844 2840 2805 2798 2855 2972 3016 3053 3372 3403 3496 3724 3691 3121 2975 3002 3074 3257 3541 3782 3509 3780 4063 3924 3654 3415 3260 3218 3134 3090 3200 3200 3200 3200 3242 3336 3410 3273 3239 3303 3613 3667 2897 2758 2933 2989 3128 3651 3642 3427 2873 3135 3509 3762 3415 2890 2779 2956 3065 2954 2793 2736 2868 2410 1895 1664 1566 1477 1585 1744 1777 1731 1633 1722 1946 2032 1896 1744 1622 1521 1360 1382 1620 1735 1728 1833 1573 1634 1671 1618 1592 1597 1593 1490 1605 1622 1590 1575 1531 1564 1513 1498 1513 1539 1578 1579 1525 1456 1371 1314 1352 1358 1384 1296 1180 1093 1047 1028 980 996 823 797 1004 1169 1079 1179 1459 1576 1414 1227 1028 1009 937 925 1147 1660 1484 1647 1565 1453 1104 1021 1028 1073 1162 1205 1486 1086 1021 1110 995 771 577 386 234 142 100 57 52 44 40 38 37 36 36 39 38 35 33 33 33 29 28 26 26 28 36 75 147 314 420 506 455 380 478 524 335 433 417 585 547 241 151 207 199 151 113 102 97 66 44 43 34 46 48 50 29 16 20 94 237 348 2 8 12 12 12 12 12 12 12 11 1 -10 -5 -2 -2 -2 -2 -2 -2 -2 -2 -2 -2 -2 -3 -3 -3 -3 -3 -3 -3 -3 -3 -3 -3 -3 -3 -3 -3 -3 -3 -3 -3 -3 -3 -3 -3 -3 -3 -3 -3 -3 -3 -3 -3 -3 -3 -3 -3 -3 -3 -3 -3 -3 -3 -3 -3 -3 -3 -3 -3 -3 -3 -3 -3 -3 -3 -3 -3 -3 -3 -3 -3
6722 5950 6034 6107 6129 6129 6129 6129 6129 6129 6129 6129 6129 6129 6129 6129 6129 6129 6119 6056 5983 5913 5864 5825 5825 5825 5825 5930 5737 5202 5184 5179 5302 5480 5488 5654 5725 5567 5462 5427 5261 5170 5119 5109 5092 5073 5224 5230 5316 5368 5229 5153 5049 5048 5034 5001 5053 5107 5081 5111 5277 5161 5191 5150 5073 5023 5046 5038 5031 5034 5019 5059 5095 5047 4992 4973 4951 4947 4930 4919 4855 4810 4800 4785 4846 4863 4843 4896 4903 4973 5065 5219 5378 5336 5226 5128 5102 5065 5008 5008 5007 4944 4912 5034 5106 5091 5098 5043 5028 5010 4990 5003 4995 5005 5023 4973 4928 4872 4885 4887 4881 4894 4906 4953 5047 5062 5101 5006 4894 4936 4903 4941 5195 5086 5094 5031 4980 4954 4932 4961 5043 5087 5017 4839 4717 4888 4717 4631 4563 4814 4459 3918 3983 4249 4071 3818 3732 3939 4058 3932 3723 3425 3237 3223 3060 2928 2839 2795 2780 2768 2756 2740 2738 2728 2721 2713 2707 2697 2689 2684 2683 2683 2681 2680 2683 2688 2687 2689 2696 2703 2719 2802 2861 2803 2802 2817 2887 2989 3082 3131 3193 3439 3680 3597 3210 3017 2948 3049 3795 3498 3339 3374 3590 4063 3986 3712 3320 3136 2799 3200 3200 3200 3200 3200 3208 3275 3459 3220 3115 3334 3571 3502 3216 2809 2649 2762 2960 3041 3338 3329 2987 2821 2982 3278 3372 3132 2737 2578 2699 2707 2654 2617 2718 2628 2060 1839 1846 1698 1961 2327 2135 1856 1698 1663 1710 1846 1854 1676 1576 1498 1416 1355 1476 1652 1787 1741 1685 1709 1832 1695 1560 1523 1542 1513 1532 1563 1588 1522 1497 1513 1542 1471 1455 1533 1550 1479 1508 1398 1330 1314 1305 1261 1342 1258 1213 1125 1052 993 938 967 838 808 1063 1229 1178 1235 1392 1537 1336 1142 1009 909 874 918 1602 2108 1621 1447 1419 1463 1035 1016 1029 1032 1010 1184 1502 1045 938 930 836 564 511 320 210 202 102 56 51 47 42 40 38 38 38 40 37 35 33 32 31 30 28 27 27 34 67 165 222 273 405 561 558 390 295 381 455 416 468 583 452 396 264 290 204 173 230 158 99 90 53 57 62 60 69 57 23 12 10 54 27 -7 -4 14 12 12 12 12 12 12 12 12 12 4 -5 -2 -2 -2 -2 -2 -2 -2 -2 -2 -2 -2 -2 -3 -3 -3 -3 -3 -3 -3 -3 -3 -3 -3 -3 -3 -3 -3 -3 -3 -3 -3 -3 -3 -3 -3 -3 -3 -3 -3 -3 -3 -3 -3 -3 -3 -3 -3 -3 -3 -3 -3 -3 -3 -3 -3 -3 -3 -3 -3 -3 -3 -3 -3 -3 -3 -3 -3 -3 -3 -3
6101 6110 6129 6129 6129 6129 6129 6129 6129 6129 6129 6129 6129 6129 6107 6037 5967 5891 5834 5825 5825 5825 5825 5825 5825 5825 5825 5897 5881 5983 5623 5287 5358 5275 5278 5547 5809 5517 5615 5363 5252 5234 5433 5534 5184 5279 5308 5277 5267 5325 5268 5204 5163 5154 5174 5230 5202 5218 5129 5137 5177 5214 5244 5204 5121 5155 5103 5072 5049 4990 4993 5085 5131 5036 5011 4976 4937 4898 4901 4900 4901 4856 4871 4929 5072 4969 4976 5056 5013 4990 5058 5120 5144 5162 5161 5170 5210 5204 5128 5150 5075 5019 4960 4945 4914 4913 4926 4927 5034 5104 5166 5124 5088 5073 5072 5022 4969 4964 4953 4942 4921 4928 4908 4925 4905 4925 5076 5068 4944 5013 5130 5199 5196 5103 5051 5028 5011 5054 5070 5069 5047 5136 5098 5062 4956 5050 5048 5089 5140 4967 4542 4076 4117 4378 4403 4430 4246 4271 4254 4271 3986 3684 3499 3357 3174 3025 2912 2849 2810 2798 2779 2757 2759 2755 2750 2738 2730 2719 2709 2702 2696 2693 2690 2689 2692 2694 2691 2690 2692 2697 2705 2726 2772 2784 2791 2782 2827 2883 2915 3015 3041 3078 3141 3203 3474 3451 3420 3202 3270 3439 3122 3109 3239 3719 4041 3773 3710 3310 3201 3200 3200 3200 3200 3200 3191 3231 3329 3387 3132 3278 3599 3242 3270 3369 2762 2653 2825 2748 3120 3598 3328 2795 2580 2936 3210 3188 2841 2579 2661 2688 2667 2546 2454 2306 2076 1947 1821 1565 1723 2249 2178 1867 1782 1782 1741 1712 1758 1674 1573 1536 1517 1393 1419 1616 1808 1640 1689 1823 1850 1700 1597 1518 1531 1476 1505 1582 1628 1573 1536 1467 1451 1406 1451 1528 1546 1449 1433 1405 1310 1256 1307 1211 1272 1198 1154 1162 1104 1030 980 888 800 792 1109 1121 1214 1176 1253 1619 1393 1225 1093 964 863 1037 1599 1928 1580 1314 1311 1317 1010 1011 1099 1089 967 1216 1450 972 820 727 711 636 428 313 283 189 93 59 51 48 45 43 41 40 40 39 38 36 34 32 31 32 30 29 34 47 131 176 237 404 517 412 311 203 217 287 359 462 598 504 460 416 312 501 306 287 239 197 100 100 66 60 94 84 71 62 65 41 7 -5 -3 -13 -18 -5 11 12 12 12 12 12 12 12 12 12 6 -2 -2 -2 -2 -2 -2 -2 -2 -2 -2 -2 -2 -2 -3 -3 -3 -3 -3 -3 -3 -3 -3 -3 -3 -3 -3 -3 -3 -3 -3 -3 -3 -3 -3 -3 -3 -3 -3 -3 -3 -3 -3 -3 -3 -3 -3 -3 -3 -3 -3 -3 -3 -3 -3 -3 -3 -3 -3 -3 -3 -3 -3 -3 -3 -3 -3 -3 -3 -3 -3
6206 6188 6169 5971 5595 5528 5462 5341 5288 5195 5101 5048 4928 4861 4867 5073 5297 5493 5731 5823 5823 5823 5823 5823 5823 5823 5823 5837 5700 5786 5807 5612 5425 5486 5405 5694 6107 5493 5639 5798 5958 5690 5687 5371 5247 5439 5585 5611 5381 5211 5244 5265 5330 5384 5256 5165 5127 5048 5112 5217 5285 5552 5597 5365 5266 5177 5071 5067 5065 5112 5084 5175 5182 5244 5191 5135 5110 4985 4915 4900 4908 4924 4909 4881 4917 4911 4976 5098 5116 5097 5041 5038 5013 5024 5038 5093 5148 5146 5134 5171 5179 5142 5071 5050 5044 5082 5074 5015 4948 4972 5023 5149 5245 5315 5253 5132 5107 5101 5139 5094 5173 5014 4966 4970 4974 4988 4953 5029 5069 5003 5033 5095 5027 5037 4965 4981 5085 5161 5287 5512 5477 5263 5171 5016 4989 5138 4956 4862 5002 5181 4938 4431 4224 4663 4621 4545 4752 4614 4626 4610 4395 4148 4029 3610 3461 3162 3076 2962 2877 2844 2813 2791 2792 2801 2794 2775 2764 2756 2749 2739 2725 2719 2724 2716 2699 2695 2696 2697 2698 2698 2702 2708 2723 2724 2740 2764 2807 2862 2900 2945 3002 3025 3135 3219 3328 3652 3963 3971 3870 3562 3149 3057 3071 3205 3475 3559 3805 3431 3204 3200 3200 3200 3200 3200 3200 3200 3227 3488 3473 3150 3317 3217 2747 2761 2636 2488 2649 2651 2848 3549 3802 3295 2806 2774 2795 2999 2828 2441 2473 2612 2569 2484 2391 2255 2087 1957 1805 1636 1458 1545 1658 1850 1957 1994 1949 1873 1881 1758 1720 1645 1603 1523 1404 1595 1772 1589 1629 1757 1749 1695 1583 1504 1465 1446 1542 1589 1568 1585 1537 1536 1486 1429 1397 1436 1503 1525 1375 1427 1403 1306 1217 1173 1195 1142 1083 1078 1076 1098 1042 936 811 734 1042 1111 1192 1090 1185 1422 1521 1193 1072 926 771 948 1563 1898 1495 1288 1195 1255 1018 1000 1044 1042 1032 1044 1235 997 887 581 730 753 603 356 354 148 90 62 54 52 49 46 43 41 40 39 38 37 34 33 34 34 32 33 46 120 240 195 231 449 605 237 169 183 199 222 279 410 382 361 327 440 363 397 309 270 190 145 114 91 65 80 98 101 108 72 142 62 5 -15 5 5 3 -7 2 12 12 12 12 12 12 12 12 12 12 3 -2 -2 -2 -2 -2 -2 -2 -2 -2 -2 -2 -2 -2 -2 -3 -3 -3 -3 -3 -3 -3 -3 -3 -3 -3 -3 -3 -3 -3 -3 -3 -3 -3 -3 -3 -3 -3 -3 -3 -3 -3 -3 -3 -3 -3 -3 -3 -3 -3 -3 -3 -3 -3 -3 -3 -3 -3 -3 -3 -3 -3 -3 -3 -3 -3 -3 -3 -3 -3
6211 6211 6211 6211 5786 5092 4795 4795 4795 4795 4795 4795 4795 4795 4795 4795 4795 4795 4795 4960 5225 5479 5744 5899 5899 5899 5856 5620 5474 5179 5219 5331 5271 5370 5578 5681 5472 5071 5359 5778 5986 5721 5604 5375 5321 5569 5520 5732 5483 5239 5430 5354 5572 5653 5344 5164 5147 5190 5219 5264 5492 5886 5612 5331 5251 5093 5062 5025 5078 5259 5344 5276 5215 5219 5214 5277 5208 5117 5010 4943 4938 4911 4916 4957 4987 5003 4973 4985 4997 5029 5039 5039 5033 4985 4951 4952 4951 4929 4913 4937 5005 5102 5110 5034 5036 5029 5072 5178 5186 5028 4981 5020 5072 5137 5179 5119 5149 5256 5308 5245 5181 5147 4970 5015 4953 4929 4903 4942 4991 5028 5050 5133 5183 5112 5161 4984 4941 5012 5205 5637 5388 5045 5048 5052 5043 5004 4859 4733 4621 4571 4676 4510 4284 4342 4383 4523 4862 4842 4885 4715 4980 4631 4459 4014 4051 3548 3583 3405 3038 3092 3083 2979 2878 2880 2863 2837 2834 2829 2831 2811 2784 2780 2792 2786 2757 2731 2724 2748 2750 2732 2719 2711 2720 2734 2751 2752 2768 2795 2848 2893 2980 3059 3254 3510 3327 3434 3570 3665 3689 3749 3413 3184 3086 3099 3228 3468 3781 3988 3481 3234 3182 3200 3201 3200 3200 3200 3230 3507 3705 3135 2848 3112 2766 2563 2599 2484 2527 2703 2750 3264 3422 3334 3190 2781 2784 2581 2705 2531 2218 2262 2279 2263 2256 2181 2070 1913 1743 1692 1727 1631 1443 1559 1719 1980 2201 2096 1951 1856 1741 1661 1577 1540 1550 1512 1583 1587 1752 1809 1787 1777 1609 1528 1431 1453 1501 1528 1530 1480 1518 1550 1546 1478 1395 1343 1407 1462 1336 1450 1422 1326 1279 1225 1129 1114 1032 1028 996 1042 1055 1039 897 714 888 1005 1065 1025 1072 1216 1450 1349 1106 872 650 731 1315 1684 1337 1244 1168 1286 1073 1019 984 945 912 1082 900 808 993 914 652 571 622 352 211 138 83 64 59 56 53 48 44 42 41 40 40 38 36 35 35 37 36 53 95 118 131 133 219 235 261 144 152 190 275 270 269 383 423 464 376 331 361 325 248 232 243 167 122 86 88 115 150 120 152 71 29 3 -1 -15 0 5 5 5 4 11 12 12 12 12 12 12 12 12 12 11 1 -2 -2 -2 -2 -2 -2 -2 -2 -2 -2 -2 -2 -2 -2 -3 -3 -3 -3 -3 -3 -3 -3 -3 -3 -3 -3 -3 -3 -3 -3 -3 -3 -3 -3 -3 -3 -3 -3 -3 -3 -3 -3 -3 -3 -3 -3 -3 -3 -3 -3 -3 -3 -3 -3 -3 -3 -3 -3 -3 -3 -3 -3 -3 -3 -3 -3 -3 -3
6211 6211 6211 6211 6211 6211 5857 5149 4795 4795 4795 4795 4795 4795 4795 4795 4795 4795 4795 4795 4795 4795 4795 4905 5171 5702 5882 5852 5528 4952 5540 5369 5416 5560 5856 5342 5135 5057 5863 5586 5380 5234 5563 5322 5325 5350 5377 5931 5797 5658 5758 5403 5553 5626 5374 5158 5227 5339 5251 5350 5407 5595 5338 5128 5107 5254 5178 5144 5161 5215 5202 5179 5138 5062 5091 5131 5049 5083 5152 5033 5002 5010 5019 4972 5000 4994 4990 4991 4970 4956 4991 5090 5139 5095 4986 4930 4910 4885 4940 4986 5033 5141 5031 5016 4940 4831 4802 4825 4883 4969 5001 4996 4989 5007 5014 4963 4973 5014 5035 5105 5064 5118 5076 5111 5089 4995 5037 5204 5057 5013 4951 4939 5009 5036 5054 5114 5221 5176 5258 4993 4998 4903 4870 4933 4881 4800 4927 4982 4913 4724 4369 4331 4624 4639 4715 4800 4605 4663 4776 4829 4964 4833 4572 4672 4648 4201 3953 3989 3457 3745 4164 3739 3153 3001 3036 3065 3014 3021 3030 2966 3123 2945 2913 2907 2836 2796 2792 2831 2832 2792 2748 2718 2724 2742 2756 2763 2775 2796 2851 2901 2990 3031 3124 3393 3532 3605 3781 3673 3787 3952 4086 3506 3220 3109 3116 3180 3333 3889 4105 3611 3379 3284 3323 3318 3207 3200 3227 3526 3856 3468 2988 2969 2587 2487 2411 2395 2497 2531 2659 3009 3060 3084 3252 2785 2441 2439 2414 2475 2216 2114 2145 2126 2118 2081 2123 1966 1942 1917 1721 1602 1507 1448 1577 1781 1948 2135 2060 1890 1747 1719 1680 1617 1641 1494 1597 1676 1790 1820 1852 1791 1652 1540 1459 1395 1454 1457 1485 1453 1427 1494 1545 1490 1474 1431 1340 1357 1335 1445 1419 1354 1255 1172 1109 1081 1128 1097 986 959 940 956 963 772 793 1126 1013 939 1084 1272 1545 1436 1194 847 624 908 1596 1291 1266 1187 1107 1202 1163 1045 1075 974 937 998 978 791 951 866 761 518 541 305 200 146 78 67 62 59 56 50 45 43 43 41 40 37 37 36 36 40 49 110 132 73 104 162 181 166 148 179 330 236 246 415 309 376 448 476 414 321 279 248 213 197 233 162 111 111 112 149 157 90 101 50 61 37 0 -11 -8 4 5 5 5 7 12 12 12 12 12 12 12 12 12 12 10 0 -2 -2 -2 -2 -2 -2 -2 -2 -2 -2 -2 -2 -2 -2 -3 -3 -3 -3 -3 -3 -3 -3 -3 -3 -3 -3 -3 -3 -3 -3 -3 -3 -3 -3 -3 -3 -3 -3 -3 -3 -3 -3 -3 -3 -3 -3 -3 -3 -3 -3 -3 -3 -3 -3 -3 -3 -3 -3 -3 -3 -3 -3 -3 -3 -3 -3 -3
6211 6211 6211 6211 6211 6211 6211 6211 5857 5149 4795 4795 4795 4795 4795 4795 4795 4795 4795 4795 4795 4795 4795 4795 4795 4800 5212 5518 5559 5027 5355 4978 4966 5475 5736 5468 5400 5403 5734 5432 5563 5297 5403 5294 5142 5133 5374 6036 5608 5530 5466 5428 5597 5656 5631 5264 5155 5136 5223 5482 5270 5287 5305 5196 5297 5475 5288 5442 5402 5215 5203 5045 5022 5032 5000 5009 5035 5104 5203 5150 5088 5083 5126 5046 5005 5012 4992 5001 5032 5041 4980 5048 5167 5167 5056 5074 5043 4968 5191 5227 5201 5221 5049 5009 5044 4833 4778 4852 4981 5018 5118 5189 5036 4947 4891 4844 4850 4877 4938 4940 4948 4966 4958 5133 5073 5054 5174 5216 5344 5125 5148 4983 4894 4873 4947 5060 5275 5430 5209 5112 5195 5096 4972 5311 5239 5028 4812 4693 4602 4681 4596 4669 4688 4699 4727 4761 4695 4639 4586 4512 4660 4551 4615 4856 4866 4801 4562 4331 4264 4094 4573 3956 3424 3176 3483 3948 3531 3728 3512 3556 3832 3473 3282 3242 3306 3160 3073 3012 2944 2863 2825 2780 2748 2760 2762 2775 2786 2809 2857 2908 2986 3052 3086 3188 3453 3495 3637 3784 3860 4188 4472 3827 3358 3178 3113 3084 3073 3243 3618 3806 3759 3650 3615 3712 3637 3505 3292 3382 3962 3606 3205 3176 2771 2629 2535 2466 2348 2295 2434 2562 2431 2631 2755 2754 2243 2145 2288 2371 2222 2007 2012 2042 2014 1998 2057 1946 1846 1776 1745 1662 1468 1479 1614 1705 2018 2162 2272 1924 1801 1831 1773 1694 1727 1545 1550 1610 1846 1862 1874 1783 1644 1511 1480 1397 1392 1412 1457 1408 1386 1457 1506 1587 1565 1534 1477 1389 1296 1357 1373 1312 1335 1272 1178 1179 1243 1190 1104 1047 980 918 827 787 738 844 863 965 1014 1133 1398 1373 1104 733 575 1002 1523 1060 1240 1100 1097 1198 1093 1050 991 966 929 952 1014 873 1019 1045 942 581 498 271 189 112 82 68 62 59 55 51 46 46 45 43 39 38 38 38 38 45 63 177 135 77 128 159 143 92 108 155 341 196 166 201 259 311 425 373 343 412 284 192 191 198 167 175 168 153 216 190 116 36 45 41 3 16 -15 -17 -18 -13 2 5 5 5 8 12 12 12 12 12 12 12 12 12 12 9 -1 -2 -2 -2 -2 -2 -2 -2 -2 -2 -2 -2 -2 -2 -2 -3 -3 -3 -3 -3 -3 -3 -3 -3 -3 -3 -3 -3 -3 -3 -3 -3 -3 -3 -3 -3 -3 -3 -3 -3 -3 -3 -3 -3 -3 -3 -3 -3 -3 -3 -3 -3 -3 -3 -3 -3 -3 -3 -3 -3 -3 -3 -3 -3 -3 -3 -3
6211 6211 6211 6211 6211 6211 6211 6211 6211 6211 5857 5147 4784 4784 4784 4784 4784 4784 4784 4784 4784 4784 4784 4784 4784 4784 4683 4453 4543 4526 4728 4763 5192 5171 5256 5342 5591 5729 5675 5507 5201 5142 5191 5117 5104 4847 5015 5578 5476 5813 5562 5372 5374 5519 5462 5621 5311 5307 5147 5306 5181 5240 5388 5341 5574 5444 5443 5471 5450 5202 5222 5050 5195 5095 4998 4964 5191 5292 5361 5246 5144 5222 5220 5096 5126 5112 5222 5140 5096 5131 5106 5099 5117 5139 5061 5018 4980 4947 5006 5017 4972 4936 4902 4869 4833 4780 4832 4852 4933 5015 5154 5171 5140 5109 4973 4834 4821 4884 4898 4919 5027 5079 4942 4942 4998 5110 5344 5453 5523 5168 5103 5043 4988 4999 5038 5062 5037 4997 5017 5149 5039 4987 4998 5056 5082 5035 5031 5138 5209 4746 4491 4591 4833 4839 4871 4890 4866 4883 4895 4591 4493 4477 4619 4739 4684 4673 4696 4775 4732 4677 4497 4113 3819 3323 3634 4161 4338 4040 3999 4018 4098 3902 3920 3731 4388 4326 3822 3267 3254 3067 3026 2972 2836 2819 2792 2783 2796 2817 2862 2901 2987 3140 3197 3252 3561 3987 3898 4110 4242 4031 4072 4172 3575 3331 3197 3133 3048 3011 3037 3086 3254 3609 3542 3502 3594 3741 3529 3343 3401 3488 3539 3612 3039 2811 2718 2605 2702 2394 2246 2200 2130 2156 2248 2325 2194 2006 2183 2203 2175 1934 1937 1970 1946 1910 1875 1882 1698 1650 1665 1539 1546 1596 1663 1769 2141 2396 2095 1970 2181 2115 1869 1793 1772 1564 1627 1659 1866 1909 1830 1697 1619 1519 1434 1406 1355 1345 1429 1417 1354 1404 1449 1561 1528 1524 1555 1505 1394 1259 1227 1206 1230 1251 1252 1290 1264 1171 1105 1090 1129 1131 1045 781 879 1131 975 1043 1180 1179 1241 1326 1015 648 497 692 1001 1018 1188 1036 1099 1218 1215 1050 990 950 915 965 1055 1168 1288 1287 1081 475 455 269 156 118 83 68 60 57 52 50 47 46 44 42 41 40 40 40 40 45 52 99 84 113 111 110 90 96 109 115 131 153 188 224 204 262 314 337 278 320 293 175 170 180 150 168 224 219 281 107 53 24 19 11 -9 -2 -14 -15 -17 -18 -15 0 5 5 5 9 12 12 12 12 12 12 12 12 12 12 6 -2 -2 -2 -2 -2 -2 -2 -2 -2 -2 -2 -2 -2 -2 -2 -2 -3 -3 -3 -3 -3 -3 -3 -3 -3 -3 -3 -3 -3 -3 -3 -3 -3 -3 -3 -3 -3 -3 -3 -3 -3 -3 -3 -3 -3 -3 -3 -3 -3 -3 -3 -3 -3 -3 -3 -3 -3 -3 -3 -3 -3 -3 -3 -3 -3 -3
6211 6211 6211 6211 6211 6211 6211 6211 6211 6211 6211 6211 5865 5203 4877 4877 4877 4877 4877 4877 4877 4877 4877 4877 4842 4763 4703 4800 4770 4809 4842 4499 4626 4722 4541 5104 5418 5533 5611 5258 5361 5061 4858 4960 4976 4666 4850 5280 5491 5419 5221 5253 5080 5139 5275 5523 5523 5862 5013 5094 5298 5281 5194 5329 5383 5322 5397 5415 5352 5135 5131 5096 5286 5191 5089 5062 5286 5302 5295 5355 5285 5328 5244 5158 5178 5141 5259 5367 5206 5113 5109 5082 5087 5066 5030 4985 4909 4884 4883 4827 4804 4806 4819 4851 4935 4920 4949 4927 4878 4909 4949 4989 4988 4995 4932 4930 5083 5110 4995 4878 4879 4849 4820 4834 4907 4956 5165 5202 5253 5079 5006 4957 4971 4990 5033 4975 4935 4961 4931 4913 4932 4913 4932 4932 5006 4915 4879 4900 4979 4947 4854 4579 4598 4716 4620 4650 4925 5170 5102 4826 4606 4490 4495 4403 4548 4293 4302 4474 4442 4590 4371 4716 4239 3664 3646 4368 4641 4583 4510 4428 4116 3954 4104 3999 4346 4679 4127 3706 3711 3924 3517 3367 3286 3003 2895 2847 2833 2843 2881 2933 3022 3272 3499 3410 3569 3914 4276 4270 4491 4628 4277 4086 3906 3655 3418 3350 3178 3071 3005 2983 2974 3057 3066 3071 3082 3089 3170 3383 3434 3650 4234 3909 3621 3388 3176 2801 2716 2670 2704 2577 2426 2334 2119 2156 2252 2091 2080 2070 2061 1901 1875 1908 1940 1853 1782 1884 1716 1577 1572 1713 1836 1587 1652 1741 1925 2146 2072 2027 2228 2456 1942 1786 1700 1558 1693 1764 1799 1850 1775 1716 1640 1587 1528 1433 1379 1319 1380 1415 1328 1338 1432 1504 1462 1435 1480 1495 1470 1410 1349 1303 1199 1127 1185 1301 1225 1192 1127 1058 992 1005 922 765 836 1311 1095 1152 1430 1423 1374 1234 849 519 471 574 739 894 1089 1002 1104 1231 1305 1158 1016 946 926 1014 1100 1353 1414 1495 1175 327 344 317 185 116 82 62 57 55 53 50 49 47 45 43 43 41 42 41 41 40 40 43 44 71 85 89 95 161 162 154 158 207 210 238 286 244 252 227 263 279 308 176 150 151 130 180 275 281 146 148 47 14 0 -10 -18 -18 -16 -14 -15 -17 -18 -17 -3 5 5 5 10 12 12 12 12 12 12 12 12 12 12 4 -2 -2 -2 -2 -2 -2 -2 -2 -2 -2 -2 -2 -2 -2 -2 -2 -3 -3 -3 -3 -3 -3 -3 -3 -3 -3 -3 -3 -3 -3 -3 -3 -3 -3 -3 -3 -3 -3 -3 -3 -3 -3 -3 -3 -3 -3 -3 -3 -3 -3 -3 -3 -3 -3 -3 -3 -3 -3 -3 -3 -3 -3 -3 -3 -3
6211 6211 6211 6211 6211 6211 6211 6211 6211 6211 6211 6211 6211 6202 5718 5130 4852 4821 4791 4761 4728 4698 4667 4626 4602 4598 4592 4502 4954 5070 5312 4800 4632 4637 4435 4884 5352 5234 5079 4953 5107 5156 5090 4791 5131 4999 4592 4765 5112 4996 5103 5223 4917 4904 5072 5119 5377 5610 5246 4973 5059 5288 5135 5289 5412 5226 5406 5448 5356 5217 5136 4969 5142 5156 5127 5276 5495 5114 5051 5328 5425 5316 5128 5212 5318 5304 5193 5281 5284 5235 5196 5120 5062 5013 4956 4933 4923 4909 4890 4853 4867 4884 4821 4800 4810 4942 5127 5069 4963 4885 4950 4950 4953 4960 4986 4933 5152 5500 5226 4931 4854 4812 4796 4789 4816 4940 5023 5036 4980 4924 4938 4987 4941 4982 5078 5053 5173 5029 5062 4951 4884 4878 4926 5031 5065 4864 4873 4822 4874 4790 4782 4674 4727 4795 4777 4595 4492 4670 4831 4875 5045 5079 4955 4862 4537 4528 4037 4011 4005 3985 3982 3909 3768 3686 3932 4302 4593 4888 4944 4619 4316 4318 4207 3953 3965 4410 4528 4218 3838 4345 4316 4063 3786 3688 3274 3015 2916 2904 2913 2976 3022 3230 3619 3567 3592 3720 3785 4315 4457 4740 4778 4314 4335 4279 4137 3844 3538 3207 3071 2996 2907 2901 2926 2962 2922 2835 2837 3284 3346 3430 3934 3932 3687 3403 3180 3353 3240 3208 3489 3041 2887 2550 2355 2133 1973 1859 1972 1946 1917 1820 1776 1851 1985 1816 1702 1906 1627 1800 1980 1930 2008 1699 1594 1717 1874 2029 2059 2085 2211 2269 2076 1901 1788 1555 1680 1857 1868 1824 1750 1657 1620 1533 1477 1411 1347 1294 1311 1357 1354 1279 1355 1431 1507 1401 1402 1422 1376 1366 1427 1380 1265 1180 1123 1257 1282 1285 1210 1184 1089 979 910 728 881 1248 1102 1235 1353 1541 1328 1151 811 462 486 628 835 956 1085 980 1058 1154 1240 1178 1011 960 975 1051 1146 1369 1583 1529 1111 371 354 325 246 164 84 62 56 55 54 52 50 49 48 46 45 44 45 44 42 42 44 38 40 44 70 73 73 114 137 164 164 157 204 226 332 266 236 195 187 203 189 146 141 148 119 189 300 147 83 103 71 19 -1 -6 -17 -18 -18 -15 -14 -15 -17 -18 -18 -7 4 5 5 11 12 12 12 12 12 12 12 12 12 11 1 -2 -2 -2 -2 -2 -2 -2 -2 -2 -2 -2 -2 -2 -2 -2 -2 -3 -3 -3 -3 -3 -3 -3 -3 -3 -3 -3 -3 -3 -3 -3 -3 -3 -3 -3 -3 -3 -3 -3 -3 -3 -3 -3 -3 -3 -3 -3 -3 -3 -3 -3 -3 -3 -3 -3 -3 -3 -3 -3 -3 -3 -3 -3 -3
6211 6211 6211 6211 6211 6211 6211 6211 6211 6211 6211 6211 6211 6211 6152 5885 5222 4787 4621 4618 4614 4610 4606 4602 4638 4866 5072 4842 4779 4502 4969 5142 4725 4732 4622 4394 4950 4846 4779 4922 4741 4612 4637 4701 5154 5099 4865 4592 5009 5023 4951 5020 4884 4824 4847 5200 5301 5481 5840 5093 4951 5160 5045 5107 5176 5211 5187 5210 5333 5419 5222 4978 4965 4964 5017 5189 5161 4929 4974 5110 5234 5158 5155 5196 5357 5370 5219 5284 5295 5279 5220 5307 5226 5167 5007 4937 4946 4947 4978 4925 4997 4971 4915 4996 5023 4899 4945 4949 4869 4805 4969 4996 4881 5056 5142 5112 5173 5306 5215 5065 5076 4905 4845 4802 4795 4869 4880 4822 4823 4810 4839 4867 4880 4919 4960 4966 5123 5106 5215 5116 4980 4931 5000 5027 5085 4921 4776 4751 4797 4886 4733 4725 4715 4666 4615 4529 4483 4492 4550 4622 4711 4830 4991 5163 5014 4956 4720 4370 4416 4261 4590 4490 4237 4210 4229 4253 4634 4331 4522 4774 4679 4627 4694 4564 4594 4627 4808 4617 4023 4074 4344 4554 4166 4143 3930 3417 3094 3054 3069 3062 3075 3195 3388 3654 4008 3762 3908 4211 4423 4458 4772 4691 4735 4541 4532 4145 3738 3533 3245 3091 2954 2984 2999 2988 2932 2782 2591 2821 2972 2977 3039 3104 2977 2784 2510 2603 2883 2905 3239 3474 3674 3232 2709 2280 2194 2039 1815 1783 1799 1788 1726 1775 1887 1810 1674 1744 1938 2161 2240 2073 2001 1854 1651 1733 1862 1948 1961 2060 2225 2224 2047 1906 1890 1695 1647 1818 1816 1797 1700 1625 1577 1544 1532 1490 1427 1335 1286 1264 1318 1260 1318 1435 1497 1425 1340 1310 1306 1285 1334 1357 1252 1139 1108 1244 1281 1334 1262 1172 1070 1009 956 797 891 996 1031 1317 1481 1327 1145 933 508 467 523 657 782 1024 1245 1057 927 1102 1242 1206 1150 1024 1042 1071 1189 1388 1445 1219 758 418 389 419 307 154 88 86 61 58 54 56 51 50 50 49 48 47 48 44 41 41 45 40 39 41 46 53 58 72 86 101 130 163 163 176 199 454 456 272 199 213 167 129 129 121 126 165 191 143 69 40 23 0 -4 -3 -13 -18 -18 -17 -15 -14 -15 -17 -18 -18 -11 3 5 6 11 12 12 12 12 12 12 12 12 12 10 0 -2 -2 -2 -2 -2 -2 -2 -2 -2 -2 -2 -2 -2 -2 -2 -2 -3 -3 -3 -3 -3 -3 -3 -3 -3 -3 -3 -3 -3 -3 -3 -3 -3 -3 -3 -3 -3 -3 -3 -3 -3 -3 -3 -3 -3 -3 -3 -3 -3 -3 -3 -3 -3 -3 -3 -3 -3 -3 -3 -3 -3 -3 -5
6211 6211 6211 6211 6211 6211 6211 6211 6211 6211 6211 6211 6211 6211 6211 6063 5694 5379 5139 4725 4601 4601 4694 4838 5011 5026 5066 5329 5599 5075 4716 5254 5227 4854 4484 4269 4346 4848 4950 5097 4888 4846 4798 4691 4724 5046 5148 5063 4914 5211 5215 4920 5062 4914 4992 4905 5310 5487 5523 5060 5038 5036 5149 5069 5028 5141 5117 5046 5116 5168 5157 5100 4941 5042 5099 5122 5006 4836 4975 5319 5211 5104 5103 5169 5318 5479 5401 5431 5406 5333 5404 5343 5319 5164 5145 5090 5126 5062 5020 4923 5033 5023 5037 5040 4902 4814 4835 4888 4886 4885 4970 5057 4850 4879 5021 5061 5180 5198 5112 5199 5167 5003 4911 4870 4839 4848 4935 4896 4834 4790 4801 4796 4796 4812 4818 4859 4911 5002 5085 5104 5046 4990 4970 4994 5011 4975 4857 4812 4846 4819 4737 4711 4732 4790 4759 4673 4582 4510 4496 4490 4501 4561 4662 4732 4806 4865 4790 4839 4814 4477 4519 4275 4005 4080 4228 4450 4356 4095 4089 4171 4210 4332 4469 4616 4529 4363 4263 4186 4109 4284 4705 4847 4656 4365 4170 3961 3456 3457 3579 3464 3316 3310 3678 4172 4242 3940 4082 3907 4203 4283 4424 4694 4325 4297 4559 4501 4123 3517 3420 3192 3035 3070 3027 2993 2927 2693 2681 2701 2795 2720 2524 2557 2472 2508 2893 2464 2333 2581 3186 3003 3037 3352 3359 2590 2218 2230 2158 1972 1769 1737 1729 1663 1739 1733 1682 1713 2050 2251 2257 2139 1970 1823 1692 1692 1769 1828 1919 2032 2135 2311 2147 2004 2013 1820 1636 1797 1742 1747 1747 1621 1523 1467 1456 1454 1454 1397 1324 1261 1240 1227 1336 1356 1401 1487 1399 1289 1222 1195 1230 1255 1262 1155 1067 1139 1252 1333 1234 1171 1089 1000 1071 868 686 906 1073 1189 1258 1251 999 696 462 486 701 745 857 1170 1262 1117 889 1053 1119 1083 1084 986 1041 1134 1201 1381 1427 1293 939 517 374 406 305 149 97 95 59 58 60 57 51 49 49 49 49 49 47 44 43 41 39 38 43 41 42 47 50 56 77 126 210 244 277 206 157 194 357 394 246 164 170 115 124 117 145 214 171 217 98 34 11 -4 -8 -7 -7 -14 -18 -18 -17 -14 -14 -15 -17 -18 -18 -14 1 4 6 10 12 12 12 12 12 12 12 12 12 9 -1 -2 -2 -2 -2 -2 -2 -2 -2 -2 -2 -2 -2 -2 -2 -2 -2 -3 -3 -3 -3 -3 -3 -3 -3 -3 -3 -3 -3 -3 -3 -3 -3 -3 -3 -3 -3 -3 -3 -3 -3 -3 -3 -3 -3 -3 -3 -3 -3 -3 -3 -3 -3 -3 -3 -3 -3 -5 -7 -8 -10 -12 -12
6211 6211 6211 6211 6211 6211 6211 6211 6211 6211 6211 6211 6211 6211 6211 6202 5971 5478 5379 5371 4648 4928 5026 5026 5039 5109 5281 5366 5614 5302 4793 4668 4751 4757 4371 4300 4261 4424 4499 4544 4674 4942 4709 4815 4844 4675 4954 5331 5400 5315 5161 4976 5084 5109 5162 4975 5092 5127 5293 5359 5018 5043 4953 5060 5046 5097 5127 5068 5182 5260 5471 5216 5070 4901 4967 5055 4988 4862 5207 5471 5366 5284 5203 5185 5163 5404 5423 5444 5543 5418 5529 5364 5356 5221 5171 5112 4992 4938 4975 5046 5004 5045 5030 5032 4939 4933 4945 5075 5094 5018 4960 4952 4958 4965 4963 5053 5105 5200 5256 5316 5227 5060 4994 4949 4915 5014 5054 4976 4832 4905 4837 4776 4772 4769 4780 4819 4865 4935 4959 4959 5008 4924 4923 5097 5080 5033 4924 5019 5052 5113 4971 4917 4875 4846 4737 4699 4595 4555 4506 4491 4457 4473 4534 4583 4628 4745 4755 4852 5113 5098 5086 4995 4781 4725 4751 4652 4705 4485 4278 4180 4151 4122 4098 4227 4706 4649 4309 4072 4280 4516 4474 4741 4898 4812 4656 4373 3878 4007 4250 4086 3687 3591 3576 3645 4250 4443 4366 4112 4311 4660 4378 4606 4321 4394 4420 4404 4309 3687 3446 3352 3178 3139 3117 3048 2888 2628 2778 2785 3025 3095 3011 2431 2385 3117 3794 3047 2378 2265 2859 2763 2717 2760 3185 2855 2365 2259 2119 1942 1789 2168 2205 1918 1686 1657 1661 1677 1970 2210 2342 2179 1930 1767 1811 1737 1840 1875 1928 1976 2090 2135 2177 2053 2013 1846 1744 1786 1689 1730 1740 1654 1500 1406 1361 1411 1348 1355 1350 1270 1213 1198 1271 1274 1363 1478 1418 1391 1348 1275 1163 1124 1164 1157 1051 1152 1198 1319 1343 1241 1148 1254 1336 1002 694 845 956 1148 1415 1241 950 577 479 599 966 901 981 1111 1202 1049 862 983 978 930 1092 921 930 1026 1125 1348 1470 1336 793 479 438 606 394 135 92 90 58 60 61 58 64 50 50 50 50 49 47 46 46 44 39 37 46 42 40 44 44 51 94 131 172 256 258 220 218 153 144 171 253 181 125 105 102 94 125 173 189 138 73 52 0 -1 -4 -8 -8 -8 -12 -17 -18 -17 -14 -13 -11 -10 -6 -3 0 0 0 0 0 1 3 4 5 7 8 10 11 12 7 -2 -2 -2 -2 -2 -2 -2 -2 -2 -2 -2 -2 -2 -2 -2 -2 -2 -3 -3 -3 -3 -3 -3 -3 -3 -3 -3 -3 -3 -3 -3 -3 -3 -3 -3 -3 -3 -3 -3 -3 -3 -3 -3 -3 -3 -3 -3 -3 -3 -3 -3 -5 -6 -8 -10 -11 -12 -12 -12 -12 -11 5
6211 6211 6211 6211 6211 6211 6211 6211 6211 6211 6211 6211 6211 6211 6211 6211 6152 5808 5379 5379 4826 4950 5458 5186 5172 5210 5246 5461 5604 5671 5633 5369 5061 4980 4651 4483 4666 4516 4654 4590 4359 4498 4872 4795 5002 5212 4904 5041 5520 5394 4861 5255 5237 5224 5343 5100 4955 5091 5329 5237 4974 5187 5127 5065 5047 4991 5100 5084 5172 5141 5100 5066 5066 4922 4988 5215 5388 5480 5387 5321 5353 5280 5173 5096 4966 5171 4981 5129 5538 5679 5565 5311 5548 5481 5439 5373 5313 5277 5059 5046 4953 5035 5041 4968 4947 4963 5067 5174 5152 5063 5154 5040 5028 5064 5120 5026 5025 5069 5072 5105 5031 5005 4934 4890 4963 5090 5109 4909 4878 5052 5032 4892 4843 4830 4838 4823 4832 4882 4930 4865 4812 4801 4819 4938 4944 5018 4906 4823 4884 4967 5036 4894 4792 4727 4725 4886 4883 4688 4565 4517 4492 4471 4485 4509 4543 4597 4765 4925 4903 4816 4808 4906 4989 5042 4998 4827 4831 4779 4689 4585 4618 4582 4327 4254 4545 4963 4768 4463 4427 4597 4473 4456 4466 4669 4845 4689 4284 4534 4800 4706 4389 4389 3996 3875 3800 3930 4205 4396 4197 4438 4310 4415 4413 4658 4099 4239 3875 3811 3719 3334 3243 3264 3196 3026 2717 2880 2954 2898 3033 3195 3112 2693 2668 3057 3752 3343 2701 2286 2816 2426 2530 2544 2790 2678 2233 2214 2066 1940 1798 2035 2298 2383 2138 1990 1932 1777 1820 2066 2243 2148 1914 1981 1939 1809 1825 1887 1938 1994 2011 2048 2016 2007 2057 2143 1910 1824 1688 1692 1672 1643 1567 1493 1417 1321 1361 1278 1402 1358 1269 1187 1185 1251 1335 1412 1498 1478 1420 1304 1206 1106 1057 1079 1022 1103 1240 1364 1398 1312 1308 1391 1259 1025 675 739 998 1222 1385 1169 813 518 500 704 771 746 833 1061 1231 1132 929 794 789 937 1030 898 881 944 1135 1283 1369 1371 920 517 690 540 367 89 79 76 62 56 55 53 52 51 52 52 50 49 47 45 45 43 38 38 43 43 40 39 39 52 103 166 202 226 199 319 284 247 150 127 121 113 116 100 84 83 102 131 109 63 59 56 7 5 4 0 -6 -8 -7 -9 -8 -4 -1 1 0 0 0 0 0 0 0 0 0 0 0 0 0 0 0 0 0 0 0 -1 -1 -1 -1 -2 -2 -2 -2 -2 -2 -2 -2 -2 -2 -2 -2 -2 -2 -2 -3 -3 -3 -3 -3 -3 -3 -3 -3 -3 -3 -3 -3 -3 -3 -3 -3 -3 -3 -3 -3 -3 -3 -3 -3 -3 -3 -7 -12 -17 -22 -23 -12 -12 -12 -12 -12 -12 -12 -12 -9 13 24
6211 6211 6211 6211 6211 6211 6211 6211 6211 6211 6211 6211 6211 6211 6211 6211 6211 6063 5583 5379 5097 4548 5669 5684 5486 5347 5400 5247 5135 5460 5631 5739 5560 5603 4792 5170 4890 5000 4578 4597 4499 4361 4770 5037 4964 5176 5278 5182 4971 4927 4955 5259 5524 5440 5232 5182 4922 5070 5406 5623 5099 5323 5330 5279 5115 5023 5040 4963 4949 5035 4907 4919 5081 5102 5218 5231 5347 5342 5324 5185 5114 5070 5052 5007 4930 4974 4910 5044 5406 5613 5394 5460 5820 5545 5380 5373 5333 5239 5187 5107 5019 4991 5061 4963 4940 4994 5065 5177 5156 5266 5262 5052 4995 4983 5013 5038 4995 4942 4913 4886 4893 4902 4922 4954 5134 5377 5366 5070 5038 4962 4922 4899 4869 4850 4807 4802 4856 4940 5002 5046 4937 4857 4816 4799 4806 4818 4791 4718 4691 4701 4778 4841 4836 4760 4700 4717 4738 4659 4587 4546 4506 4482 4460 4468 4508 4510 4572 4714 4835 4947 4776 4789 4753 4705 4687 4742 4777 4636 4554 4544 4516 4482 4452 4326 4285 4502 4628 4659 4758 4888 4556 4257 4193 4236 4454 4719 4628 4641 4816 4714 4352 4181 3763 4181 3980 3959 4101 4295 4209 4147 4241 4365 4577 4716 4388 3900 3736 3716 3701 3795 3414 3199 3038 2855 3157 3209 3183 3176 3145 3268 3451 3006 2993 2935 3365 3643 3217 2566 2506 2189 2124 2141 2307 2208 1897 2054 2167 2020 1850 2150 2076 2241 2456 2371 2546 2064 1861 1954 2116 2046 1926 2070 1924 1791 1885 1871 1881 1966 1941 1960 1997 1963 2073 2226 2183 1947 1729 1615 1594 1566 1530 1434 1389 1367 1278 1265 1353 1331 1271 1180 1199 1249 1267 1368 1485 1464 1358 1310 1359 1250 1103 997 1005 1127 1199 1261 1449 1495 1451 1496 1229 1122 863 664 859 1118 1233 860 518 471 441 479 568 608 901 1144 1208 1055 922 822 703 894 956 847 817 980 1099 1275 1166 1145 617 258 439 346 145 73 63 62 61 57 55 54 54 55 56 53 50 51 48 45 45 41 38 39 53 43 36 36 37 42 96 142 171 216 228 266 289 272 215 190 120 90 77 73 72 72 107 95 62 52 30 13 -2 -4 -4 -3 -2 -2 -1 0 0 0 0 0 0 0 0 0 0 0 0 0 0 0 0 0 0 0 0 0 -1 -1 0 0 0 0 0 0 -1 -1 -1 -2 -2 -2 -2 -2 -2 -2 -2 -2 -2 -2 -2 -3 -3 -3 -3 -3 -3 -3 -3 -3 -3 -3 -3 -3 -3 -3 -3 -3 -2 -2 -2 -2 -2 -7 -16 -21 -26 -27 -27 -27 -23 -12 -12 -12 -12 -12 -12 -12 -12 -7 17 24 24
6211 6211 6211 6211 6211 6211 6211 6211 6211 6211 6211 6211 6211 6211 6211 6211 6211 6202 5927 5412 5271 4519 5369 5689 5736 5074 4174 4179 4186 4456 5210 5610 5707 5549 4947 4756 4850 4993 4944 4849 4925 4600 4378 4847 5005 5050 5111 5099 4876 4955 4974 5032 5278 5414 5548 5570 5142 5135 5410 5810 5514 5198 5271 5283 5216 5020 5062 5056 4964 4978 4987 5050 5146 5471 5519 5483 5338 5469 5210 5080 5010 4977 4979 4956 5048 4975 4919 4981 5205 5453 5321 5913 5752 5456 5257 5278 5385 5273 5115 5100 5075 4988 4947 4940 4948 4995 5194 5175 5254 5176 5010 4972 4909 4887 4879 4911 4962 4971 4943 4903 4882 4881 4928 4897 5049 5323 5295 5169 5224 5066 4963 4925 4873 4910 4929 4862 4884 5008 5047 5122 5136 5038 4904 4844 4853 4809 4833 4794 4760 4722 4725 4710 4700 4706 4731 4663 4653 4636 4601 4561 4525 4495 4467 4447 4451 4457 4571 4565 4613 4783 4686 4718 4668 4721 4705 4637 4649 4723 4542 4589 4540 4553 4418 4464 4391 4409 4363 4401 4471 4597 4638 4450 4357 4249 4181 4156 4234 4306 4409 4333 4601 3993 4006 4003 4184 4007 4271 4430 4407 4255 4245 4489 4488 4617 4549 4144 4085 3656 3569 3532 3553 2968 3126 3040 3194 3299 3317 3340 3434 3465 3527 3198 3233 3297 3375 3520 3345 2823 3099 2816 2502 2510 2506 2610 2178 2138 2022 1819 2037 2224 2054 1968 2080 2540 2874 2494 2044 1994 2067 1960 2053 2043 1924 1809 1907 1967 1950 1950 1940 1911 1902 1911 2005 2177 2311 2049 1803 1665 1547 1487 1446 1392 1351 1311 1294 1234 1296 1297 1208 1145 1166 1237 1342 1351 1484 1507 1475 1393 1268 1230 1140 1026 964 1054 1116 1275 1477 1564 1568 1498 1242 1052 806 594 479 520 581 463 441 408 427 491 517 657 1168 1271 1188 1020 866 766 663 848 878 848 790 926 1100 1208 1009 779 135 109 191 183 84 67 65 67 64 60 57 57 56 59 55 53 50 49 48 46 44 41 41 49 62 42 35 30 39 67 110 99 124 127 224 304 256 224 192 219 139 97 73 67 62 81 124 72 69 33 8 2 0 -1 12 -2 -2 -1 0 0 0 0 1 0 0 0 0 0 0 0 0 0 0 0 0 0 0 0 0 -1 -1 0 0 0 0 0 0 0 -1 -1 0 0 0 -2 -2 -2 -2 -2 -1 -1 -1 -1 -1 -1 -1 -1 -1 -1 -1 -1 -1 -1 -1 -1 0 0 0 0 0 0 0 0 0 0 -9 -26 -27 -27 -27 -27 -27 -23 -12 -12 -12 -12 -12 -12 -12 -12 -3 21 24 24 24
6211 6211 6211 6211 6211 6211 6211 6211 6211 6211 6211 6211 6211 6211 6211 6211 6211 6211 6152 5697 5379 4683 4957 5689 5757 5743 4369 4179 4186 4288 4782 5095 5497 5275 4989 4892 4914 4717 4731 5064 5081 4711 4569 4356 4410 4680 4964 5099 5188 5215 5123 5106 5421 5369 5273 5591 5268 5142 5516 5552 5544 5262 5172 5100 5229 5207 5148 5176 5217 5253 5211 5209 5104 4996 5224 5420 5057 5211 5159 5044 4978 5029 5121 4985 5076 5017 5055 4972 4951 5215 5326 5489 5477 5456 5346 5320 5205 5173 5071 5010 4965 4962 4998 5035 5021 5037 5050 5169 5326 5139 5213 5072 5041 4948 4918 4887 4861 4861 4876 4948 4917 4897 4873 4894 5019 5149 5129 5134 5081 4984 4922 4900 4851 4857 4886 4927 4972 5008 5073 5181 5109 5100 5021 4893 4804 4802 4937 4958 4961 4853 4800 4776 4799 4762 4752 4731 4781 4768 4705 4611 4549 4520 4490 4455 4439 4428 4425 4472 4604 4532 4539 4673 4700 4546 4590 4649 4602 4653 4579 4538 4464 4582 4469 4608 4505 4537 4469 4417 4466 4494 4589 4661 4656 4440 4376 4354 4447 4468 4230 3986 4037 4148 4610 4594 4660 4346 4301 4522 4556 4406 4331 4553 4428 4416 4407 4116 4327 3505 3346 3316 3485 3158 3376 3202 3124 3172 3303 3351 3483 3910 3823 3447 3571 3783 3392 3300 2993 2582 3013 3463 3361 3007 2764 3406 2580 2223 2031 1991 2005 2224 2165 1985 1940 2397 3053 2853 2300 2087 2045 1976 2093 2042 1934 1833 1912 1956 1991 1987 1940 1943 1879 1885 1982 2169 2335 2061 1873 1674 1581 1519 1423 1385 1310 1309 1277 1233 1251 1327 1215 1124 1159 1244 1249 1358 1460 1468 1351 1288 1219 1099 1055 1004 900 990 1038 1227 1312 1453 1490 1210 1111 960 625 399 407 422 426 425 432 477 620 738 686 935 1494 1576 1197 953 787 682 581 709 891 740 758 862 1030 968 567 141 86 80 91 95 72 71 75 71 65 64 60 61 60 61 55 52 50 49 48 45 43 41 39 42 50 39 35 31 70 78 49 61 81 104 176 237 300 229 192 155 98 101 79 61 61 84 110 88 44 14 2 0 -1 19 1 -2 -1 0 0 0 0 0 1 0 0 0 0 0 0 0 0 0 0 0 0 0 0 0 -1 0 0 0 0 0 0 0 0 -1 0 0 0 -1 -2 -3 -3 -3 -2 -1 0 0 0 0 0 0 0 0 0 0 0 0 0 0 0 0 0 0 0 0 0 0 0 0 0 -12 -26 -27 -27 -27 -27 -27 -23 -12 -12 -12 -12 -12 -12 -12 -12 2 22 24 24 24 24
6211 6211 6211 6211 6211 6211 6211 6211 6211 6211 6211 6211 6211 6211 6211 6211 6211 6211 6211 6058 5472 4942 4552 5678 5780 5809 5214 4681 4596 4322 4583 4659 5178 5147 4736 5323 5595 4662 4700 4523 4738 4615 4746 4621 4555 4764 5192 4871 5047 5245 5260 5235 5357 5331 4972 5062 5222 5510 5574 5323 5241 5381 5192 5000 5109 5270 5291 5360 5432 5449 5412 5130 4950 4879 4846 4929 4842 4893 4882 5025 4992 4953 4944 4993 5108 5170 4962 5104 4978 5029 5224 5222 5195 5199 5136 5237 5381 5448 5351 5240 5233 5096 5111 5080 5009 5030 4895 5136 5050 5137 5040 4941 4931 4971 4976 4875 4855 4898 4902 4835 4865 4858 4883 4975 5080 5100 5333 5253 5034 4954 4925 4896 4860 4892 4929 4877 4992 5090 5063 5153 5190 5134 5002 4938 4858 4828 4924 4981 5050 5056 4908 4910 4812 4739 4717 4649 4631 4674 4795 4809 4752 4741 4716 4615 4532 4460 4412 4393 4443 4448 4555 4654 4564 4583 4605 4584 4593 4571 4602 4514 4489 4424 4405 4510 4599 4630 4571 4586 4591 4758 4797 4588 4595 4560 4474 4414 4571 4822 4792 4596 4292 4141 4326 4589 4573 4732 4595 4604 4465 4325 4360 4520 4475 4428 4515 4250 4284 3709 3284 3110 2919 3719 3837 3598 3380 3294 3247 3249 3344 3636 3770 3816 4379 4416 3888 3615 3091 2665 2868 3475 3779 3530 3716 3482 2969 2241 2121 2035 2019 2290 2229 2142 2023 2105 2402 2630 2389 2182 2089 2041 2018 2014 1928 1937 1879 2004 2028 1977 1876 1866 1836 1888 1984 2139 2417 2041 1861 1667 1563 1479 1453 1429 1370 1268 1242 1217 1201 1297 1179 1111 1118 1176 1219 1306 1429 1547 1491 1356 1326 1144 1079 1006 940 883 1009 1106 1264 1492 1452 1114 936 687 444 401 487 495 554 577 636 642 532 647 850 1190 1328 1557 1542 1263 991 818 648 657 855 813 686 781 762 464 192 92 82 75 75 74 77 78 78 72 68 63 61 62 64 59 56 53 51 50 48 45 43 41 40 37 38 35 35 33 30 30 35 47 67 121 133 258 289 208 138 121 81 80 68 58 56 58 51 43 22 8 3 0 17 33 -2 -1 0 0 0 0 0 0 0 0 0 0 0 0 0 0 0 0 0 0 0 0 -1 -1 0 0 0 0 0 0 0 -1 0 0 0 0 -2 -3 -3 -3 -3 -3 -1 0 0 0 0 0 0 0 0 0 0 0 0 0 0 0 0 0 0 0 0 0 0 0 0 0 -14 -27 -27 -27 -27 -27 -27 -23 -12 -12 -12 -12 -12 -12 -12 -11 7 24 24 24 24 24 24
5943 6020 6107 6183 6211 6211 6211 6211 6211 6211 6211 6211 6211 6211 6211 6211 6211 6211 6211 6202 5774 5132 4531 5375 5777 5765 5530 5207 5207 4787 4452 4605 4530 4586 4625 5483 5665 5062 5292 4676 4486 4620 4632 4541 4574 4616 4821 4893 4687 4839 4809 4956 4935 4836 4830 5148 5488 5493 5318 5186 5182 5231 5055 4947 5069 5314 5550 5430 5383 5395 5388 5194 4960 4897 4845 4819 4785 4750 4814 4843 4939 4942 5011 5122 5317 5392 4911 5018 5031 5059 5080 5036 5053 5083 5073 5195 5242 5326 5602 5338 5341 5210 5168 5134 5068 4978 5008 5052 4950 5045 4878 4995 4991 4993 4936 4959 4931 4907 4915 4838 4845 4857 4904 4960 5095 5118 5241 5385 5147 5032 4996 4981 4888 4861 4857 4862 4994 5209 5208 5212 5236 5052 4979 4926 4908 4927 4907 4876 4897 4928 4942 4998 4844 4722 4656 4592 4567 4567 4581 4576 4596 4705 4803 4869 4767 4707 4539 4466 4378 4383 4437 4450 4486 4540 4626 4607 4589 4541 4608 4712 4699 4509 4433 4460 4557 4498 4483 4503 4654 4745 4533 4583 4590 4606 4635 4627 4561 4605 4646 4718 4560 4515 4537 4318 4248 4151 4283 4242 4303 4272 4315 4339 4402 4357 4232 4516 4412 4340 3701 3327 3056 3491 4048 4050 3764 3668 3625 3347 3405 3539 3638 3885 4329 4486 4062 4122 3227 2896 3270 3412 3483 3593 4034 4020 2942 2386 2161 2075 2143 2263 2167 2091 2041 1982 2183 2347 2470 2301 2110 2067 2033 2061 2067 2103 1944 2031 2082 1996 1893 1799 1781 1882 1977 2176 2462 2058 1979 1808 1508 1405 1368 1371 1355 1298 1215 1217 1189 1195 1219 1090 1122 1179 1281 1367 1393 1525 1630 1509 1262 1217 1150 1071 1002 857 907 1032 1127 1143 1196 1187 877 588 411 473 602 643 734 829 634 531 583 838 921 1028 1030 1212 1136 1273 1377 1056 837 673 880 830 647 458 340 189 102 84 85 77 77 80 76 78 74 70 65 63 64 64 63 59 57 55 53 50 48 45 43 42 40 38 37 35 35 34 32 30 31 39 50 88 115 133 132 122 99 64 52 52 52 50 73 50 47 23 17 4 7 5 76 73 5 0 0 0 0 0 0 1 0 0 0 0 0 0 0 0 0 0 0 0 0 -1 0 0 0 0 0 0 0 0 -1 0 0 0 -2 -3 -3 -3 -3 -3 -3 -1 0 0 0 0 0 0 0 0 0 0 0 0 0 0 0 0 0 0 0 0 0 0 0 0 0 -16 -27 -27 -27 -27 -27 -27 -23 -12 -12 -12 -12 -12 -12 -12 -9 13 24 24 24 24 24 24 24
5666 5666 5666 5666 5715 5802 5878 5960 6036 6120 6180 6194 6194 6194 6194 6194 6194 6194 6194 6194 6104 5285 4712 5051 5449 5483 5577 5728 5628 5332 4504 4829 4584 4652 4644 4988 5651 5447 5720 5107 4626 4443 4514 4505 4541 4807 4864 4783 4542 4555 4641 4626 4653 4876 4988 5147 5369 5258 5126 4923 4949 4943 4916 4882 5143 5565 5458 5522 5230 5174 5094 5050 5088 5098 4990 4700 4643 4738 4844 4919 4990 5051 5105 5291 5129 5080 5151 5118 5124 5151 5238 5099 5012 5012 5041 5125 5025 5022 5332 5208 5113 5026 5145 5248 5136 5112 5030 5140 5012 5081 5086 5167 5086 5089 5044 4987 5012 4973 4919 4859 4892 4935 4877 4900 5056 5109 5331 5351 5210 5132 5100 5085 5021 4929 4908 4883 4926 5099 5131 5186 5163 5012 4916 4907 4897 4889 4910 4896 4860 4839 4915 4849 4767 4694 4627 4616 4549 4527 4569 4519 4507 4519 4573 4747 4860 4769 4789 4707 4622 4450 4417 4421 4409 4472 4583 4676 4645 4580 4589 4749 4762 4603 4529 4503 4524 4485 4415 4379 4410 4429 4539 4617 4542 4553 4606 4600 4528 4550 4544 4516 4563 4640 4690 4418 4233 4184 4097 4128 4263 4217 4240 4209 4314 4396 4103 4407 4253 3844 3651 3263 3107 2986 3493 3695 3738 3537 3571 3443 3529 3807 3993 3806 4259 4127 3795 3590 3155 3601 3654 3693 3287 3093 3268 3521 3002 2472 2234 2188 2286 2200 2170 2171 2103 1971 2185 2349 2501 2434 2310 2150 2062 2044 2092 2183 2153 2037 1995 1985 1864 1796 1780 1866 1918 2048 2357 2176 1864 1960 1764 1534 1396 1287 1276 1264 1283 1218 1147 1109 1173 1080 1182 1213 1267 1266 1367 1484 1540 1559 1436 1313 1259 1138 1023 852 771 774 828 869 874 871 723 508 410 575 648 746 641 618 513 504 681 1029 864 552 637 714 942 913 1131 1032 701 637 581 443 250 172 131 99 97 89 84 81 80 83 76 73 70 68 68 66 66 67 65 62 58 54 53 50 48 46 44 42 40 38 38 37 36 35 35 35 33 32 43 63 92 106 97 99 69 48 44 47 49 48 65 73 54 30 10 4 28 68 84 3 1 0 0 0 0 0 0 1 0 0 0 0 0 0 0 0 0 0 0 0 -1 0 0 0 0 0 0 0 -1 0 0 0 -1 -2 -3 -3 -3 -3 -3 -3 -1 0 0 0 0 0 0 0 0 0 0 0 0 0 0 0 0 0 0 0 0 0 0 0 0 0 -18 -27 -27 -27 -27 -27 -27 -23 -12 -12 -12 -12 -12 -12 -12 -7 17 24 24 24 24 24 24 24 24
5666 5666 5666 5666 5666 5666 5666 5666 5666 5666 5670 5730 5799 5868 5937 6011 6033 5905 5787 5645 5405 5289 4693 5118 5558 5436 5788 5841 5900 5611 4653 4688 4763 4739 4949 4870 5249 5617 5700 5253 5079 4925 4915 4791 4919 4904 5011 4924 4813 4787 4683 4677 4874 4594 4672 4880 5147 5026 4909 4859 4779 4781 5136 4898 4889 5272 5210 5491 5359 5379 5047 4907 5059 5187 5144 4878 4680 4635 4742 4899 4905 4902 4984 5020 5003 4960 4976 4986 4914 4914 4976 5081 5093 5050 5004 4973 4897 5002 5042 5007 5010 4928 4980 5138 5207 5211 5037 5022 4972 5116 5223 5125 5021 5117 5015 5041 5156 5127 5058 4974 4923 4942 4933 5057 5167 5166 5294 5400 5243 5213 5219 5216 5201 5054 5003 4911 4904 4933 4958 4973 5026 5074 4935 4891 4841 4805 4785 4823 4837 4849 4970 5016 4883 4793 4813 4778 4712 4547 4504 4517 4466 4459 4475 4544 4749 4759 4642 4591 4623 4732 4689 4582 4439 4458 4590 4824 4746 4693 4550 4603 4739 4715 4657 4588 4600 4569 4464 4375 4334 4342 4376 4479 4500 4464 4605 4599 4428 4479 4396 4357 4371 4436 4480 4447 4433 4257 4224 4168 4152 4227 4387 4304 4450 4273 3949 3857 3844 3575 3572 3638 3291 3129 3117 3212 3333 3303 3328 3416 3524 3554 3695 3761 4186 4011 3711 3514 3315 3869 3786 3694 3315 3142 3374 2932 2838 2850 2740 2483 2405 2374 2341 2198 2133 1999 2148 2260 2372 2317 2378 2346 2093 2122 2152 2213 2238 2098 1968 1842 1788 1820 1717 1738 1829 1930 2243 2340 1874 1765 1712 1650 1467 1352 1283 1197 1160 1178 1179 1127 1078 1069 1134 1159 1192 1254 1351 1481 1442 1530 1486 1414 1398 1316 1197 954 823 671 701 750 747 741 676 482 489 563 574 529 469 456 437 452 854 1113 883 616 436 423 486 544 575 637 327 207 184 129 124 116 108 100 100 92 88 88 88 82 81 79 77 77 73 68 68 70 67 63 60 56 53 50 49 45 44 43 41 40 40 38 37 36 37 37 35 34 38 55 96 116 79 44 39 43 43 42 42 44 53 79 45 18 10 4 31 17 3 4 3 2 1 0 0 0 0 0 0 0 0 0 0 0 0 0 0 0 -1 0 0 0 0 0 0 0 0 0 0 0 0 -2 -3 -3 -3 -3 -3 -3 -3 -2 0 0 0 0 0 0 0 0 0 0 0 0 0 0 0 0 0 0 0 0 0 0 0 0 -1 -20 -27 -27 -27 -27 -27 -27 -23 -12 -12 -12 -12 -12 -12 -12 -3 21 24 24 24 24 24 24 24 24 24
5738 5727 5718 5708 5699 5688 5678 5669 5666 5666 5666 5666 5666 5666 5666 5666 5666 5610 5441 5341 5527 5238 4640 4941 5728 5772 5799 5749 5795 5507 5398 4492 4502 4708 4901 5062 4925 5445 5691 5554 5523 5050 5213 5275 5408 5380 4941 4878 4912 4818 4693 4740 4765 4613 4436 4523 4703 4807 4860 4818 4832 4716 4985 4926 4864 4933 5050 5214 5232 5042 5035 4921 4748 4805 4931 4890 5235 4941 4624 4998 5122 4971 4995 5020 5022 5105 4974 4875 4778 4741 4772 4824 4936 4975 5078 5123 5011 4956 4871 5058 5068 4909 4921 4970 5075 5212 5106 5068 5021 5160 5259 5200 5109 5030 4935 5077 5124 5243 5174 5066 5013 5078 5107 5239 5274 5201 5191 5354 5251 5215 5263 5358 5187 5148 5126 4962 4956 4912 4929 4891 4918 4831 4915 4933 4840 4826 4817 4704 4742 4754 4740 4802 4824 4979 4936 4947 4923 4657 4526 4509 4463 4427 4408 4444 4543 4729 4810 4694 4451 4429 4682 4659 4656 4406 4452 4733 4936 4718 4671 4518 4616 4716 4722 4623 4616 4625 4602 4549 4445 4366 4358 4375 4372 4364 4407 4357 4357 4407 4319 4343 4315 4295 4321 4448 4479 4375 4435 4428 4344 4340 4335 4369 4247 4098 4118 4142 3944 3985 3721 3859 3604 3277 3534 3389 3419 3329 3407 3565 3647 3721 3835 3771 4044 4133 3651 3588 3495 3928 3594 3459 3449 3322 3478 3136 2965 3343 3448 3257 2947 2599 2437 2325 2178 2054 2275 2255 2345 2219 2257 2257 2097 2005 2110 2194 2152 2018 2019 1997 1834 1663 1755 1719 1799 1845 1984 2358 2109 1701 1570 1452 1422 1355 1350 1310 1231 1194 1173 1133 1141 1061 1041 1132 1151 1275 1306 1365 1451 1341 1320 1285 1222 1128 1007 912 792 701 583 618 650 668 614 442 515 494 463 411 397 402 379 512 969 1037 982 795 451 394 347 394 471 438 317 204 181 135 115 111 106 100 110 115 98 94 93 88 87 82 81 81 78 72 73 75 74 71 66 62 61 54 49 48 46 44 43 43 41 40 39 38 38 39 36 34 32 33 40 51 43 34 29 33 32 33 34 37 53 52 40 21 14 3 4 6 9 13 3 2 1 2 2 1 1 0 0 0 0 0 0 0 0 0 0 -1 0 0 0 0 0 0 0 -1 0 0 0 -2 -3 -3 -3 -3 -2 -2 -3 -3 -2 0 0 0 0 0 0 0 0 0 0 0 0 0 0 0 0 0 0 0 0 0 0 0 0 -2 -22 -27 -27 -27 -27 -27 -27 -23 -12 -12 -12 -12 -12 -12 -12 2 22 24 24 24 24 24 24 24 24 24 24
5745 5745 5745 5745 5745 5745 5745 5745 5738 5727 5718 5708 5699 5688 5678 5669 5666 5666 5666 5611 5516 5472 4635 4576 5286 5453 5556 5456 5183 5201 5385 4598 4617 4446 4804 4755 4898 4905 5322 5111 4868 4835 5214 5601 6065 5902 5094 4702 4608 4824 4777 4588 4854 4878 4535 4512 4612 4523 4605 4879 4877 4675 4779 4846 4867 4968 5171 5145 5042 4801 4727 4668 4603 4622 4592 4673 5076 5399 4856 4701 5018 5279 5193 5122 5092 5256 5199 5026 4794 4683 4687 4741 4808 4888 5039 5035 5007 4924 4968 4945 4872 4839 4891 5042 5248 5149 5069 5144 5140 5139 5149 5249 5216 5040 4990 5052 5218 5216 5220 5177 5163 5074 5181 5224 5248 5212 5115 5146 5128 5238 5332 5311 5273 5300 5202 4973 4909 4894 4914 4970 4934 4752 4744 4839 4841 4805 4904 4767 4794 4857 4778 4706 4729 4739 4852 4926 4908 4907 4667 4588 4506 4456 4402 4388 4431 4522 4623 4657 4604 4337 4313 4460 4483 4468 4481 4597 4879 4860 4599 4533 4725 4671 4742 4661 4585 4516 4517 4640 4543 4363 4381 4414 4312 4290 4290 4290 4336 4311 4271 4315 4318 4289 4387 4474 4456 4305 4375 4559 4459 4574 4475 4267 4148 4395 4279 4294 4131 4027 3991 4003 3757 3253 3552 3726 3603 3584 3705 3816 3812 3877 3886 3808 3900 3997 3760 3636 3538 3813 3558 3605 3287 3278 3260 3232 3002 3395 3638 3610 3575 3293 3092 2511 2265 2101 2305 2365 2263 2207 2115 2149 2055 1937 2033 2007 1985 1920 1876 1880 1823 1751 1585 1644 1710 1770 1932 2148 2365 1828 1531 1438 1439 1356 1296 1265 1301 1281 1219 1164 1059 1021 1040 1093 1161 1178 1259 1516 1440 1188 1211 1103 1005 1084 1007 942 813 684 605 540 579 553 505 367 418 388 377 374 374 370 411 761 1208 1068 738 591 522 676 626 377 307 307 242 216 201 141 114 109 117 126 136 127 101 95 90 89 84 81 81 76 70 67 66 70 69 71 68 62 62 62 54 50 48 47 46 45 43 42 41 40 40 40 38 36 32 32 39 43 47 47 41 45 44 32 32 33 56 42 26 16 5 3 4 7 5 3 2 1 2 2 2 3 2 1 0 0 0 0 0 0 0 0 0 0 0 0 0 0 0 0 0 0 0 -1 -2 -3 -3 -3 -2 -2 -2 -3 -3 -2 0 0 0 0 0 0 0 0 0 0 0 0 0 0 0 0 0 0 0 0 0 0 0 0 -4 -23 -27 -27 -27 -27 -27 -27 -23 -12 -12 -12 -12 -12 -12 -11 7 24 24 24 24 24 24 24 24 24 24 24 24
5745 5745 5745 5745 5745 5745 5745 5745 5745 5745 5745 5745 5745 5745 5745 5745 5738 5725 5736 5723 5253 4821 4264 4808 5048 5507 5341 4822 4990 5348 5505 5167 4349 4376 4346 4470 4556 4580 4639 4779 4828 5072 5247 5551 5842 5563 5207 4874 4701 4710 4868 4561 4591 4611 4449 4705 4749 4565 4492 4507 4629 4809 4627 4620 4662 4713 4990 5308 4920 4802 4681 4638 4563 4634 4589 4597 4900 5272 5268 5022 4886 5336 5318 5313 5207 5251 5450 5296 4908 4699 4818 4945 5043 5007 4936 4963 5038 5029 4842 4914 4918 4928 4975 5190 5365 5219 5205 5226 5264 5279 5162 5274 5141 5055 5188 5187 5295 5349 5269 5353 5332 5245 5230 5386 5230 5269 5154 5067 5133 5315 5460 5432 5341 5422 5184 4991 4915 4903 4855 4866 4875 4775 4706 4722 4794 4708 4818 4773 4749 4795 4826 4719 4653 4628 4682 4876 4870 4772 4857 4732 4641 4623 4503 4425 4397 4437 4526 4499 4515 4509 4560 4409 4318 4329 4472 4694 4742 4819 4683 4449 4737 4658 4704 4683 4604 4663 4598 4505 4465 4462 4507 4440 4410 4379 4296 4330 4328 4271 4271 4325 4355 4299 4305 4383 4394 4284 4340 4473 4670 4609 4703 4479 4272 4472 4684 4602 4387 4252 4094 3706 3473 3378 3756 3794 3783 3787 3847 3975 3908 3874 3744 3717 3692 3713 3663 3651 3651 3742 3839 3688 3206 3538 3794 3514 3020 3086 3302 3581 3478 3354 3378 2850 2307 2406 2397 2393 2248 2096 2027 2005 1989 1888 2009 1971 1849 1850 1831 1800 1741 1661 1542 1611 1689 1743 1892 2207 2105 1934 1658 1386 1306 1390 1313 1326 1298 1190 1134 1095 1100 1110 1008 977 1089 1106 1355 1563 1367 1123 948 944 1000 1099 839 638 559 536 516 465 526 475 394 354 388 360 353 350 351 522 810 673 920 837 536 585 880 936 594 403 335 377 276 170 142 147 147 153 163 166 151 138 114 100 95 88 81 80 78 75 69 65 62 62 62 62 67 61 61 60 62 56 51 51 50 49 49 47 47 45 43 42 40 37 34 36 73 64 94 55 40 28 29 27 27 29 42 29 18 16 5 3 4 6 4 2 2 2 2 4 4 4 2 0 0 0 0 0 0 0 0 0 0 0 0 0 0 0 0 0 0 0 -2 -3 -3 -3 -3 -2 -1 -2 -3 -3 -2 0 0 0 0 0 0 0 0 0 0 0 0 0 0 0 0 0 0 0 0 0 0 0 0 -5 -24 -27 -27 -27 -27 -27 -27 -23 -12 -12 -12 -12 -12 -12 -9 13 24 24 24 24 24 24 24 24 24 24 24 24 24
5697 5697 5697 5697 5697 5697 5697 5697 5697 5697 5697 5697 5697 5697 5697 5697 5697 5697 5668 5326 4707 4386 4420 4506 5281 5575 4636 4578 4945 5084 5367 5652 4607 4510 4458 4322 4542 4707 4592 4682 4692 4942 5213 5313 5274 5212 5064 4779 4603 5185 4692 4557 4640 4868 4779 4463 4668 4739 4643 4514 4551 4666 4734 4602 4594 4543 4547 4703 4924 4729 4741 4875 4661 4603 4778 4798 4801 5063 5269 5268 4849 5036 5185 5274 5562 5495 5573 5535 5150 4797 4848 4983 5060 4992 4929 5033 5115 5039 4867 4807 5050 5070 5087 5148 5260 5191 5338 5379 5398 5396 5304 5150 4972 5042 5196 5130 5118 5251 5293 5703 5722 5494 5305 5367 5261 5244 5167 5055 5150 5272 5336 5358 5326 5420 5271 5081 5062 5022 4928 4941 4800 4775 4730 4731 4758 4720 4714 4625 4786 4838 4799 4743 4650 4576 4561 4614 4701 4633 4687 4790 4872 4752 4653 4607 4463 4493 4496 4549 4689 4527 4750 4697 4522 4359 4499 4626 4508 4614 4655 4568 4709 4558 4730 4749 4622 4680 4733 4603 4521 4525 4525 4538 4392 4370 4314 4291 4301 4290 4302 4329 4314 4295 4293 4275 4309 4316 4327 4426 4649 4628 4734 4663 4387 4659 4671 4673 4598 4190 4202 4124 3976 3544 3824 4103 4148 4040 3931 4066 3949 3788 3708 3698 3716 3642 3668 3820 3894 3746 3715 3518 3501 3697 3552 3278 3084 3051 3257 3458 3491 3331 2911 2657 2360 2581 2812 2717 2452 2245 2126 2000 1824 1861 1978 1958 1813 1710 1788 1812 1588 1520 1735 1650 1631 1695 1787 1965 2284 1735 1516 1380 1138 1285 1316 1240 1190 1214 1230 1194 1196 1207 1190 1059 964 1043 1188 1248 1250 983 848 744 970 716 533 466 435 440 422 429 396 379 343 348 378 457 412 606 869 835 590 458 500 521 517 663 661 675 517 409 340 318 269 202 188 195 202 183 310 251 243 185 157 130 107 101 91 81 78 76 69 66 63 61 59 59 60 59 60 57 59 56 52 48 46 46 47 47 48 48 45 45 43 39 36 47 59 38 51 44 28 24 24 25 26 36 48 30 13 7 5 8 4 3 3 3 2 3 4 5 4 2 1 1 0 0 0 0 0 0 0 0 0 0 0 0 0 0 0 0 -2 -3 -3 -3 -3 -3 -2 -1 -2 -3 -3 -2 0 0 0 0 0 0 0 0 0 0 0 0 0 0 0 0 0 0 0 0 0 0 0 0 -7 -25 -27 -27 -27 -27 -27 -27 -23 -12 -12 -12 -12 -12 -12 -7 17 24 24 24 24 24 24 24 24 24 24 24 24 24 24
5697 5697 5697 5697 5697 5697 5697 5697 5697 5697 5697 5697 5697 5697 5697 5697 5668 5294 4704 4427 4095 4042 5071 5438 5617 4858 4422 4538 4566 4711 4942 5569 5102 4337 4698 4685 4792 4771 4817 5118 5026 5006 4864 4973 5074 5391 5006 4961 4627 4943 5101 4604 4640 4796 5002 4528 4450 4540 4689 4627 4508 4571 4624 4621 4599 4482 4486 4672 5096 4840 4830 4759 4768 4669 4681 4912 4903 5024 5235 5108 4839 5137 5349 5656 5600 5261 5212 5129 5102 5083 5031 4961 4957 5003 4953 5205 5374 5229 5059 4862 4902 5121 4992 5067 5080 5152 5346 5151 5156 5363 5323 5120 5118 5187 5109 5092 5102 5153 5277 5599 5882 5720 5346 5500 5220 5253 5116 5013 5113 5313 5354 5448 5371 5419 5345 5182 5005 4922 4987 4912 4924 4923 4790 4689 4666 4772 4783 4605 4623 4637 4615 4554 4533 4706 4675 4558 4687 4545 4572 4644 4979 4779 4611 4426 4440 4653 4778 4823 4759 4564 4583 4813 4761 4595 4386 4432 4515 4451 4446 4509 4515 4502 4544 4699 4724 4721 4708 4662 4603 4518 4516 4512 4561 4498 4441 4381 4302 4382 4407 4351 4316 4315 4294 4280 4328 4329 4323 4374 4479 4680 4719 4693 4573 4723 5002 4348 4147 4140 3870 3801 3653 3650 3659 3683 3927 4164 3913 3980 4023 3814 3778 3698 3614 3608 3640 3833 3983 3659 3714 3776 3606 3569 3412 3254 3192 3230 3368 3507 3534 3533 3184 2871 2858 2709 3180 3214 2743 2412 2255 2178 2016 1822 2045 1987 1748 1652 1644 1755 1606 1417 1599 1773 1783 1784 1763 1898 2060 2118 1463 1132 996 1095 1114 1253 1274 1309 1281 1321 1270 1327 1259 1222 1075 926 999 1043 1062 895 738 635 606 519 453 405 380 376 366 359 351 345 334 421 1110 1313 1058 859 620 504 413 449 597 737 633 617 554 513 426 369 297 224 192 143 132 144 171 293 608 559 385 321 233 187 145 135 102 89 76 72 69 65 62 59 58 57 57 57 55 54 56 50 48 46 45 44 43 42 42 42 41 40 41 43 42 47 49 43 35 32 36 26 29 24 23 38 41 21 14 8 6 5 4 4 3 4 3 4 5 5 3 1 1 1 1 0 0 0 0 0 0 0 0 0 0 0 0 0 -1 -2 -3 -3 -3 -3 -2 -1 -1 -2 -3 -3 -2 0 0 0 0 0 0 0 0 0 0 0 0 0 0 0 0 0 0 0 0 0 0 0 0 -9 -26 -27 -27 -27 -27 -27 -27 -23 -12 -12 -12 -12 -12 -12 -3 21 24 24 24 24 24 24 24 24 24 24 24 24 24 24 24
5697 5697 5697 5697 5697 5697 5697 5697 5697 5697 5697 5697 5697 5697 5615 5110 4573 4342 4339 4285 4260 5185 5889 5688 5019 4800 4761 4449 4656 4612 4745 5274 5694 4407 4480 5409 5428 4869 4663 4941 4898 4879 4619 4689 5074 5185 4819 5027 4928 4653 4910 4835 4584 4419 4539 4770 4758 4551 4415 4462 4570 4641 4721 4796 4628 4551 4636 4773 4846 4692 4610 4606 4657 4743 4815 4759 4830 4789 4974 5107 4891 5108 5287 5356 5469 5194 5144 5142 5114 5154 5167 5093 5038 5128 5161 5348 5537 5627 5449 4854 4907 5146 5114 5044 4948 4940 5036 5087 5276 5478 5338 5224 5313 5133 5169 5183 5134 5206 5376 5682 5589 5334 5490 5386 5164 5125 5090 5022 5078 5203 5241 5409 5331 5396 5429 5270 5001 4931 5126 4949 5035 4981 4851 4777 4704 4670 4660 4685 4720 4684 4573 4521 4529 4575 4565 4515 4591 4559 4573 4625 4662 4765 4600 4709 4588 4540 4701 4633 4681 4645 4523 4613 4798 4678 4560 4495 4399 4498 4683 4666 4485 4559 4719 4711 4788 4790 4763 4651 4713 4664 4627 4578 4494 4455 4472 4487 4386 4490 4457 4331 4259 4267 4254 4309 4325 4360 4306 4309 4369 4546 4626 4638 4728 4686 5014 4479 4328 4142 4302 4129 4160 4040 4059 3676 3841 3832 3564 3777 3988 3884 3652 3601 3599 3621 3631 3871 3928 3640 3655 3786 3576 3414 3176 3180 3123 3195 3258 3248 3418 3328 3130 2866 2614 2775 3087 2946 2667 2461 2228 2066 2146 1835 2131 1907 1737 1686 1545 1711 1663 1433 1492 1656 1736 1652 1656 1776 2001 2050 1800 1393 1035 933 1016 1149 1317 1388 1384 1403 1326 1357 1302 1157 1056 1096 945 962 901 875 665 565 497 454 416 385 366 355 360 357 350 343 337 503 714 654 566 497 400 371 516 638 681 861 677 599 512 459 405 387 344 259 189 163 189 197 271 611 648 548 317 313 229 177 162 146 116 93 76 67 67 63 60 59 57 55 54 54 53 50 50 53 47 46 44 42 41 41 39 40 41 38 37 48 54 62 47 50 71 48 48 42 35 21 22 24 30 20 16 11 6 5 5 5 4 5 4 4 5 1 1 1 1 1 1 1 0 0 0 0 0 0 0 0 0 0 0 -2 -2 -3 -3 -3 -3 -2 -1 -1 -2 -3 -3 -2 0 0 0 0 0 0 0 0 0 0 0 0 0 0 0 0 0 0 0 0 0 0 0 0 -11 -26 -27 -27 -27 -27 -27 -27 -23 -12 -12 -12 -12 -12 -12 2 22 24 24 24 24 24 24 24 24 24 24 24 24 24 24 24 24
